-4.74157,67.8075,31.69637,300.0
-5.92425,67.71442,31.69637,300.0
-7.38932,70.30475,32.96423,303.0
-8.39428,68.36597,32.11899,301.0
-9.46002,67.31157,31.69637,300.0
-10.91689,68.92652,32.54161,302.0
-12.11816,68.72549,32.54161,302.0
-13.48868,69.3932,32.96423,303.0
-14.32083,67.37421,32.11899,301.0
-15.90224,68.88017,32.96423,303.0
-17.10194,68.59215,32.96423,303.0
-18.29644,68.28323,32.96423,303.0
-19.48536,67.95351,32.96423,303.0
-21.1983,69.33651,33.80947,310.0
-22.12509,68.09404,33.38685,304.0
-22.72,65.98367,32.54161,302.0
-23.86811,65.5771,32.54161,302.0
-26.95771,70.22723,35.07732,313.0
-30.5558,75.62825,38.03565,330.0
-31.1628,73.41494,37.19041,323.0
-31.33343,70.37604,35.92256,320.0
-31.79084,68.17568,35.07732,313.0
-32.18123,65.98131,34.23209,311.0
-32.91641,64.60209,33.80947,310.0
-33.61338,63.21756,33.38685,304.0
-33.83278,61.03595,32.54161,302.0
-43.95592,76.1339,40.99398,342.0
-35.94229,59.81802,32.54161,302.0
-34.09917,54.57007,30.0059,241.0
-43.43773,66.88824,37.19041,323.0
-41.55767,61.61178,34.6547,312.0
-43.66629,62.36192,35.49994,314.0
-38.88815,53.52494,30.85114,243.0
-40.90722,54.28572,31.69637,300.0
-40.73245,52.13516,30.85114,243.0
-39.92506,49.30334,29.58328,240.0
-41.94456,49.98759,30.42852,242.0
-39.24303,45.14394,27.89281,231.0
-35.77986,39.73756,24.93448,214.0
-38.94033,41.75838,26.62495,223.0
-40.29276,41.72437,27.04757,224.0
-39.73309,39.73309,26.20234,222.0
-36.50882,35.25616,23.66663,211.0
-43.08405,40.17653,27.47019,230.0
-44.45218,40.02493,27.89281,231.0
-38.98795,33.89171,24.08924,212.0
-39.57351,33.20611,24.08924,212.0
-38.73834,31.36969,23.24401,210.0
-42.13663,32.92075,24.93448,214.0
-39.80952,29.99863,23.24401,210.0
-41.06023,29.832,23.66663,211.0
-38.605,27.03151,21.97615,202.0
-37.56816,25.34004,21.13092,200.0
-43.32534,28.1358,24.08924,212.0
-39.96681,24.97404,21.97615,202.0
-41.9503,25.20628,22.82139,204.0
-40.81405,23.564,21.97615,202.0
-39.63373,21.96934,21.13092,200.0
-40.01111,21.27429,21.13092,200.0
-40.3763,20.57275,21.13092,200.0
-39.10003,19.07036,20.28568,143.0
-38.60551,18.00204,19.86306,142.0
-37.2579,16.58829,19.01782,140.0
-41.71304,17.70613,21.13092,200.0
-37.81413,15.2779,19.01782,140.0
-36.38278,13.96604,18.17259,133.0
-35.76933,13.01897,17.74997,132.0
-37.70496,12.98286,18.59521,134.0
-34.478,11.20258,16.90473,130.0
-49.40227,15.10379,24.08924,212.0
-48.78714,13.98949,23.66663,211.0
-48.14843,12.90133,23.24401,210.0
-48.36626,12.05906,23.24401,210.0
-50.33551,11.62087,24.08924,212.0
-51.41716,10.92906,24.51186,213.0
-50.71041,9.85711,24.08924,212.0
-49.98218,8.81321,23.66663,211.0
-52.81383,8.36489,24.93448,214.0
-52.05428,7.31575,24.51186,213.0
-53.07359,6.51662,24.93448,214.0
-54.08057,5.6841,25.3571,220.0
-53.26868,4.66041,24.93448,214.0
-54.246,3.79325,25.3571,220.0
-62.44953,3.27284,29.16067,234.0
-54.34534,1.89778,25.3571,220.0
-55.27635,0.96485,25.77972,221.0
-55.28477,0.0,25.77972,221.0
-55.72523,0.0,27.17901,222.0
-54.81809,0.95685,26.74064,221.0
-55.69128,1.94478,27.17901,222.0
-55.64886,2.91643,27.17901,222.0
-53.79628,3.7618,26.30227,220.0
-53.72243,4.7001,26.30227,220.0
-52.73835,5.54302,25.8639,214.0
-62.44662,7.66748,30.68598,240.0
-51.62273,7.2551,25.42553,213.0
-51.48825,8.15494,25.42553,213.0
-57.53406,10.14481,28.49412,230.0
-50.29,9.77539,24.98715,212.0
-50.99089,10.83845,25.42553,213.0
-50.79396,11.72671,25.42553,213.0
-49.70947,12.39396,24.98715,212.0
-46.88109,12.56175,23.67204,204.0
-50.11063,14.36899,25.42553,213.0
-48.9927,14.97857,24.98715,212.0
-47.01422,15.27585,24.11041,210.0
-45.0408,15.50879,23.23367,203.0
-45.60787,16.59991,23.67204,204.0
-48.6676,18.68174,25.42553,213.0
-33.33389,13.46777,17.53485,130.0
-31.43908,13.3451,16.6581,123.0
-36.12793,16.08519,19.28833,134.0
-35.8417,16.71326,19.28833,134.0
-33.92889,16.54823,18.41159,132.0
-37.63908,19.17807,20.60344,142.0
-37.29864,19.83204,20.60344,142.0
-35.37463,19.60848,19.7267,140.0
-36.58379,21.12166,20.60344,142.0
-36.98001,22.21983,21.04181,143.0
-36.58659,22.86184,21.04181,143.0
-35.42823,23.00736,20.60344,142.0
-38.00184,25.63256,22.35693,201.0
-40.49369,28.35399,24.11041,210.0
-32.72128,23.77341,19.7267,140.0
-36.60825,27.5863,22.35693,201.0
-38.24601,29.88106,23.67204,204.0
-37.02019,29.97836,23.23367,203.0
-39.24542,32.93082,24.98715,212.0
-36.62974,31.84175,23.67204,204.0
-35.40051,31.87476,23.23367,203.0
-38.12551,35.55261,25.42553,213.0
-38.7923,37.46129,26.30227,220.0
-37.49706,37.49706,25.8639,214.0
-36.83693,38.14576,25.8639,214.0
-38.00452,40.75486,27.17901,222.0
-36.68605,40.74398,26.74064,221.0
-35.96938,41.37804,26.74064,221.0
-36.97496,44.06504,28.05575,224.0
-34.5034,42.60814,26.74064,221.0
-32.64782,41.7873,25.8639,214.0
-37.32264,49.52881,30.24761,234.0
-35.39596,48.71836,29.37086,232.0
-36.60242,52.27368,31.12435,241.0
-37.19234,55.13992,32.43946,244.0
-35.24532,54.27303,31.56272,242.0
-38.57935,61.73987,35.50806,311.0
-35.64431,59.3221,33.75458,302.0
-31.45779,54.4865,30.68598,240.0
-30.50208,55.02721,30.68598,240.0
-29.53708,55.55116,30.68598,240.0
-28.56308,56.05819,30.68598,240.0
-31.91444,65.43429,35.50806,311.0
-28.10866,60.27922,32.43946,244.0
-27.41793,61.58169,32.87783,300.0
-26.6902,62.87817,33.3162,301.0
-25.58876,63.3344,33.3162,301.0
-25.44582,66.28863,34.63132,304.0
-24.89986,68.4118,35.50806,311.0
-24.28735,70.5356,36.3848,313.0
-23.88586,73.51314,37.69992,321.0
-19.44587,63.60455,32.43946,244.0
-17.83737,62.20629,31.56272,242.0
-16.98163,63.37629,32.00109,243.0
-15.87297,63.66301,32.00109,243.0
-15.16385,65.68185,32.87783,300.0
-13.64149,64.17818,32.00109,243.0
-12.51936,64.40649,32.00109,243.0
-11.54947,65.50031,32.43946,244.0
-10.40458,65.6919,32.43946,244.0
-9.13142,64.97343,32.00109,243.0
-7.88655,64.23081,31.56272,242.0
-6.85832,65.25254,32.00109,243.0
-6.26681,71.62991,35.06969,310.0
-4.51416,64.55553,31.56272,242.0
-3.38683,64.62448,31.56272,242.0
-2.28982,65.572,32.00109,243.0
-1.16077,66.50063,32.43946,244.0
0.0,76.39749,37.26155,320.0
1.27057,72.79123,35.50806,311.0
2.8858,82.63868,40.33014,332.0
3.99833,76.29279,37.26155,320.0
4.57686,65.45214,32.00109,243.0
5.71846,65.36229,32.00109,243.0
6.85832,65.25253,32.00109,243.0
8.10562,66.015,32.43946,244.0
9.25651,65.86348,32.43946,244.0
10.40457,65.6919,32.43946,244.0
11.3934,64.61517,32.00109,243.0
12.86235,66.17105,32.87783,300.0
15.69706,73.84888,36.82317,314.0
15.97259,69.18488,34.63132,304.0
16.74272,67.1514,33.75458,302.0
17.91213,66.84897,33.75458,302.0
15.85544,55.29448,28.05575,224.0
16.0297,52.43078,26.74064,221.0
17.22004,52.99784,27.17901,222.0
16.38665,47.59028,24.54878,211.0
114.96971,315.8767,163.9508,2444.0
123.04181,320.53488,167.45776,3012.0
128.28049,317.50534,167.0194,3011.0
134.50456,316.87286,167.89615,3013.0
140.74538,316.11935,168.77289,3020.0
145.1015,311.1711,167.45776,3012.0
150.90405,309.39917,167.89615,3013.0
158.72906,311.5234,170.52637,3024.0
161.18805,303.15063,167.45776,3012.0
166.4542,300.29135,167.45776,3012.0
172.11908,298.11896,167.89615,3013.0
176.83281,294.29926,167.45776,3012.0
181.94215,291.16824,167.45776,3012.0
186.996,287.94858,167.45776,3012.0
192.49548,285.38635,167.89615,3013.0
197.44688,281.98337,167.89615,3013.0
202.33807,278.4945,167.89615,3013.0
207.1677,274.92078,167.89615,3013.0
215.25426,275.5129,170.52637,3024.0
216.63603,267.5233,167.89615,3013.0
220.69427,263.01318,167.45776,3012.0
225.25085,259.1215,167.45776,3012.0
229.73888,255.15083,167.45776,3012.0
234.76982,251.75983,167.89615,3013.0
237.87915,246.33113,167.0194,3011.0
242.77757,242.77757,167.45776,3012.0
246.33109,237.87921,167.0194,3011.0
251.1025,234.15685,167.45776,3012.0
255.15083,229.73886,167.45776,3012.0
259.1215,225.25084,167.45776,3012.0
261.63614,219.5388,166.58102,3010.0
267.52325,216.6361,167.89615,3013.0
270.55508,211.38078,167.45776,3012.0
274.20297,206.62679,167.45776,3012.0
278.4945,202.33807,167.89615,3013.0
281.98337,197.44688,167.89615,3013.0
286.13144,192.99815,168.33452,3014.0
289.45618,187.97504,168.33452,3014.0
294.21713,183.8473,169.21126,3021.0
295.06967,177.29573,167.89615,3013.0
297.34058,171.66968,167.45776,3012.0
299.50525,166.01843,167.0194,3011.0
296.00833,157.39043,163.51244,2443.0
294.70593,150.1602,161.32057,2433.0
293.24255,143.02394,159.12872,2423.0
289.9919,135.22548,156.06012,2411.0
292.30777,130.14378,156.06012,2411.0
284.60645,120.80827,150.79967,2334.0
280.83804,113.46597,147.73106,2322.0
279.41916,107.25896,145.97758,2313.0
278.71475,101.44389,144.66248,2310.0
277.04343,95.39368,142.90898,2301.0
273.53726,88.87766,140.27876,2240.0
270.7491,82.77635,138.0869,2230.0
267.83264,76.79977,135.89505,2220.0
262.18686,70.25278,132.38808,2202.0
259.8846,64.7965,130.6346,2143.0
270.60922,62.47508,135.45668,2214.0
263.74597,56.06092,131.51134,2200.0
262.91965,51.10641,130.6346,2143.0
260.23096,45.88577,128.8811,2134.0
258.32898,40.91528,127.56599,2131.0
256.33356,36.02535,126.25089,2123.0
254.24696,31.21758,124.93577,2120.0
252.07144,26.49379,123.62066,2112.0
250.70468,21.93385,122.74391,2110.0
251.0493,17.55507,122.74391,2110.0
249.52231,13.07693,121.86717,2103.0
254.20377,8.87698,124.05903,2113.0
246.23206,4.29801,120.11369,2044.0
244.47198,-2.0E-5,119.23695,2042.0
249.48184,-2.0E-5,127.11731,2110.0
240.53514,4.19857,122.57741,2040.0
240.42523,8.39582,122.57741,2040.0
242.02165,12.68384,123.48539,2042.0
243.5411,17.03005,124.39336,2044.0
244.0944,21.35553,124.84736,2100.0
245.45677,25.79856,125.75534,2102.0
247.62224,30.40417,127.11731,2110.0
252.34792,35.46521,129.84125,2121.0
249.93045,39.58509,128.93327,2114.0
250.95647,44.25043,129.84125,2121.0
253.64452,49.3035,131.65721,2130.0
254.4885,54.09318,132.5652,2132.0
256.1102,59.12771,133.92717,2140.0
258.49744,64.45064,135.74313,2144.0
260.77582,69.87469,137.55908,2203.0
261.2296,74.90638,138.46707,2210.0
262.43872,80.23561,139.82904,2213.0
263.54065,85.62956,141.19101,2221.0
265.37595,91.37624,143.00697,2230.0
266.2526,96.90804,144.36894,2233.0
268.6799,103.13654,146.6389,2243.0
269.31735,108.81132,148.00087,2301.0
270.65805,114.88753,149.81683,2310.0
271.05368,120.68085,151.1788,2313.0
276.17395,128.78204,155.26471,2332.0
274.68518,133.9729,155.7187,2333.0
278.6563,141.98251,159.35063,2401.0
280.85623,149.33391,162.07457,2412.0
282.1037,156.37259,164.34453,2422.0
283.1898,163.49973,166.61447,2432.0
284.87567,171.17055,169.33841,2443.0
282.60052,176.58844,169.7924,2444.0
283.2119,183.91997,172.06236,3004.0
277.0042,186.84175,170.2464,3000.0
273.7012,191.64764,170.2464,3000.0
276.08154,200.58495,173.87833,3013.0
266.84604,201.08295,170.2464,3000.0
262.59393,205.16084,169.7924,2444.0
258.2809,209.1518,169.33841,2443.0
255.27394,214.20027,169.7924,2444.0
250.82431,218.03821,169.33841,2443.0
247.64294,222.97873,169.7924,2444.0
243.71373,227.26671,169.7924,2444.0
239.71022,231.48552,169.7924,2444.0
235.63376,235.63376,169.7924,2444.0
231.48546,239.71028,169.7924,2444.0
231.52037,248.2752,172.97034,3011.0
222.97873,247.64294,169.7924,2444.0
218.62277,251.49677,169.7924,2444.0
214.773,255.95648,170.2464,3000.0
209.71246,258.9734,169.7924,2444.0
204.61229,261.89178,169.33841,2443.0
200.54674,266.13446,169.7924,2444.0
194.82402,268.15228,168.88443,2442.0
191.1366,272.9713,169.7924,2444.0
185.34695,274.7882,168.88443,2442.0
181.0083,278.72836,169.33841,2443.0
177.06061,283.35614,170.2464,3000.0
170.71165,284.1119,168.88443,2442.0
165.72723,287.04797,168.88443,2442.0
161.12425,290.6759,169.33841,2443.0
155.60844,292.6569,168.88443,2442.0
150.47713,295.3281,168.88443,2442.0
145.69066,298.7101,169.33841,2443.0
140.83183,302.0148,169.7924,2444.0
135.17705,303.6127,169.33841,2443.0
129.85773,305.9256,169.33841,2443.0
124.16502,307.3192,168.88443,2442.0
119.10196,310.2712,169.33841,2443.0
113.97357,313.13983,169.7924,2444.0
108.49117,315.08127,169.7924,2444.0
102.70037,316.0793,169.33841,2443.0
97.42892,318.6756,169.7924,2444.0
88.1685,307.48007,162.98254,2414.0
11.99169,44.7536,23.6075,202.0
13.36435,53.60147,28.1474,222.0
12.8277,55.56289,29.05539,224.0
11.48554,54.03523,28.1474,222.0
10.88077,55.97672,29.05539,224.0
11.4494,64.93279,33.59529,244.0
11.4295,72.16302,37.22721,312.0
9.67232,68.82216,35.41125,303.0
8.46973,68.98048,35.41125,303.0
7.17144,68.23167,34.95726,302.0
5.97954,68.34644,34.95726,302.0
4.78582,68.44038,34.95726,302.0
3.63727,69.40327,35.41125,303.0
2.42546,69.45618,35.41125,303.0
1.19736,68.59706,34.95726,302.0
0.0,70.38952,35.86524,304.0
-1.24402,71.26967,36.31923,310.0
-2.98519,85.48453,43.58308,341.0
-4.38338,83.63984,42.6751,334.0
-5.59382,79.99525,40.85913,330.0
-6.21251,71.00928,36.31923,310.0
-7.17143,68.23167,34.95726,302.0
-8.36115,68.09612,34.95726,302.0
-9.54832,67.93982,34.95726,302.0
-10.73258,67.76283,34.95726,302.0
-12.06829,68.44267,35.41125,303.0
-13.09093,67.34699,34.95726,302.0
-14.44955,67.9798,35.41125,303.0
-15.63376,67.71727,35.41125,303.0
-16.81321,67.43411,35.41125,303.0
-17.98754,67.13041,35.41125,303.0
-19.40198,67.66275,35.86524,304.0
-20.0589,65.60968,34.95726,302.0
-20.92555,64.40222,34.50327,301.0
-21.46617,62.34228,33.59529,244.0
-23.16041,63.63269,34.50327,301.0
-26.18327,68.20975,37.22721,312.0
-31.04126,76.8298,42.22111,333.0
-30.98482,72.99565,40.40514,324.0
-30.80442,69.18787,38.58918,320.0
-31.25412,67.02467,37.6812,313.0
-31.63792,64.86734,36.77322,311.0
-31.95617,62.71752,35.86524,304.0
-32.62758,61.36354,35.41125,303.0
-33.69355,60.78477,35.41125,303.0
-34.30375,59.41584,34.95726,302.0
-35.33548,58.80811,34.95726,302.0
-38.24509,61.20493,36.77322,311.0
-39.30744,60.52814,36.77322,311.0
-38.86308,57.61688,35.41125,303.0
-37.30741,53.2805,33.1413,243.0
-41.37392,56.94632,35.86524,304.0
-39.68036,52.65762,33.59529,244.0
-41.69044,53.36133,34.50327,301.0
-43.17611,53.31805,34.95726,302.0
-43.52733,51.87385,34.50327,301.0
-37.99594,43.70933,29.50937,230.0
-39.94538,44.36385,30.41736,232.0
-41.92889,44.96323,31.32534,234.0
-39.61249,41.01994,29.05539,224.0
-40.95239,40.95239,29.50937,230.0
-39.73806,38.3746,28.1474,222.0
-43.0083,40.10589,29.96337,231.0
-44.36384,39.94538,30.41736,232.0
-39.67462,34.48862,26.78543,214.0
-44.36579,37.22732,29.50937,230.0
-43.62386,35.3259,28.60139,223.0
-42.12737,32.91351,27.23942,220.0
-40.5606,30.5646,25.87745,212.0
-41.80869,30.37579,26.33144,213.0
-44.52206,31.17468,27.69341,221.0
-39.14993,26.40696,24.06149,203.0
-40.35209,26.20496,24.51548,204.0
-37.0252,23.13592,22.24553,144.0
-44.29702,26.61633,26.33144,213.0
-42.43989,24.50268,24.96947,210.0
-39.74389,22.0304,23.15351,201.0
-40.12232,21.33341,23.15351,201.0
-41.28242,21.03444,23.6075,202.0
-41.64323,20.31076,23.6075,202.0
-46.83652,21.84023,26.33144,213.0
-40.69875,18.12025,22.69952,200.0
-39.36844,16.71091,21.79154,143.0
-39.65409,16.02129,21.79154,143.0
-36.60036,14.04956,19.97558,134.0
-33.49089,12.18969,18.15962,130.0
-33.69853,11.60333,18.15962,130.0
-32.20111,10.46278,17.25163,123.0
-45.15991,13.80677,24.06149,203.0
-49.67645,14.24449,26.33144,213.0
-49.91748,13.37535,26.33144,213.0
-46.68515,11.63992,24.51548,204.0
-49.4857,11.42467,25.87745,212.0
-50.54908,10.74454,26.33144,213.0
-50.7289,9.8607,26.33144,213.0
-55.28062,9.74747,28.60139,223.0
-51.92217,8.22366,26.78543,214.0
-52.05779,7.31624,26.78543,214.0
-53.06191,6.51518,27.23942,220.0
-53.16753,5.58813,27.23942,220.0
-52.36935,4.58172,26.78543,214.0
-53.33017,3.72921,27.23942,220.0
-54.27692,2.84453,27.69341,221.0
-54.31829,1.89684,27.69341,221.0
-54.34312,0.94856,27.69341,221.0
-55.24241,0.0,28.1474,222.0
-67.98696,0.0,36.14931,302.0
-52.96879,0.92457,28.16829,220.0
-53.82699,1.87968,28.63777,221.0
-57.31294,3.00364,30.51565,230.0
-52.84781,3.69548,28.16829,220.0
-52.77526,4.61724,28.16829,220.0
-51.80853,5.4453,27.69882,214.0
-52.58197,6.45625,28.16829,220.0
-51.58693,7.25007,27.69882,214.0
-51.45255,8.14928,27.69882,214.0
-51.30248,9.04601,27.69882,214.0
-51.1368,9.93999,27.69882,214.0
-50.95553,10.83093,27.69882,214.0
-50.75874,11.71858,27.69882,214.0
-48.83305,12.17545,26.75988,212.0
-47.76027,12.79733,26.29041,211.0
-50.07588,14.35903,27.69882,214.0
-48.12892,14.71449,26.75988,212.0
-47.86478,15.55221,26.75988,212.0
-44.2467,15.23536,24.88199,203.0
-46.46316,16.91121,26.29041,211.0
-43.68804,16.77027,24.88199,203.0
-34.3835,13.89184,19.71781,132.0
-35.76133,15.17978,20.65675,134.0
-36.29757,16.16072,21.12622,140.0
-32.00889,14.92599,18.77886,130.0
-35.71146,17.41764,21.12622,140.0
-36.97547,18.83994,22.06516,142.0
-38.97982,20.72594,23.47358,200.0
-37.83992,20.97501,23.00411,144.0
-36.70344,21.19074,22.53464,143.0
-40.86903,24.55659,25.35147,204.0
-36.69032,22.92665,23.00411,144.0
-37.02511,24.04439,23.47358,200.0
-35.13584,23.69942,22.53464,143.0
-37.60995,26.33477,24.41252,202.0
-36.4303,26.46816,23.94305,201.0
-35.96282,27.09993,23.94305,201.0
-34.78861,27.17984,23.47358,200.0
-34.99514,28.3385,23.94305,201.0
-38.55349,32.35022,26.75988,212.0
-37.98303,33.01815,26.75988,212.0
-38.05716,34.26682,27.22935,213.0
-36.16183,33.72145,26.29041,211.0
-34.29752,33.12074,25.35147,204.0
-34.3386,34.3386,25.82094,210.0
-37.41416,38.7435,28.63777,221.0
-38.5388,41.32781,30.04618,224.0
-37.81166,41.99411,30.04618,224.0
-38.81081,44.64672,31.4546,232.0
-34.05286,40.58263,28.16829,220.0
-36.1177,44.60164,30.51565,230.0
-38.59538,49.39983,33.33248,241.0
-36.66461,48.65558,32.39354,234.0
-35.80987,49.28805,32.39354,234.0
-34.94422,49.90551,32.39354,234.0
-33.08045,49.04378,31.4546,232.0
-31.2577,48.13264,30.51565,230.0
-30.41291,48.67083,30.51565,230.0
-35.47063,59.03304,36.61878,303.0
-33.55201,58.11378,35.67984,301.0
-32.53267,58.6905,35.67984,301.0
-30.25987,56.91054,34.27142,243.0
-29.66289,58.21669,34.7409,244.0
-28.64235,58.72551,34.7409,244.0
-27.98623,60.01667,35.21037,300.0
-27.29366,61.30257,35.67984,301.0
-26.56463,62.58233,36.14931,302.0
-26.12988,64.67372,37.08825,304.0
-25.31361,65.94421,37.55773,310.0
-25.06483,68.86504,38.96614,313.0
-24.72153,71.79652,40.37456,321.0
-24.28327,74.73624,41.78297,324.0
-23.2334,75.99303,42.25244,330.0
-16.30602,56.86583,31.4546,232.0
-13.25437,49.46599,27.22935,213.0
-13.45707,53.97338,29.57671,223.0
-14.30064,61.94287,33.80195,242.0
-13.40098,63.04667,34.27142,243.0
-12.29863,63.27095,34.27142,243.0
-11.49917,65.21502,35.21037,300.0
-10.22114,64.5337,34.7409,244.0
-8.97043,63.8279,34.27142,243.0
-7.85511,63.97474,34.27142,243.0
-6.7374,64.10208,34.27142,243.0
-5.6946,65.08949,34.7409,244.0
-4.49617,64.29816,34.27142,243.0
-3.32711,63.4851,33.80195,242.0
-2.3419,67.06314,35.67984,301.0
-1.1249,64.44536,34.27142,243.0
0.0,75.05054,39.90508,320.0
1.37145,78.57037,41.78297,324.0
2.37271,67.94555,36.14931,302.0
3.41953,65.24858,34.7409,244.0
4.80412,68.70215,36.61878,303.0
5.92546,67.72826,36.14931,302.0
6.8297,64.98019,34.7409,244.0
7.85511,63.97474,34.27142,243.0
8.97042,63.8279,34.27142,243.0
10.08301,63.66162,34.27142,243.0
11.19252,63.47596,34.27142,243.0
12.63558,65.0044,35.21037,300.0
13.76813,64.77398,35.21037,300.0
12.51306,54.20002,29.57671,223.0
12.17545,48.83306,26.75988,212.0
13.71142,51.17171,28.16829,220.0
14.84577,51.77337,28.63777,221.0
16.52153,54.03949,30.04618,224.0
16.64359,51.22372,28.63777,221.0
16.3852,47.58607,26.75988,212.0
109.01688,299.52145,169.47923,2421.0
114.22766,297.57324,169.47923,2421.0
119.40364,295.53436,169.47923,2421.0
124.54324,293.40546,169.47923,2421.0
129.64488,291.18723,169.47923,2421.0
134.70709,288.88022,169.47923,2421.0
139.34114,285.69168,169.00977,2420.0
144.3059,283.21637,169.00977,2420.0
149.64128,281.43433,169.47923,2421.0
154.10211,278.00763,169.00977,2420.0
161.13795,279.0991,171.35713,2430.0
163.25583,271.70334,168.5403,2414.0
168.44077,269.56152,169.00977,2420.0
172.63869,265.84027,168.5403,2414.0
177.74567,263.51883,169.00977,2420.0
182.8241,261.09985,169.47923,2421.0
187.35306,257.8694,169.47923,2421.0
191.825,254.56032,169.47923,2421.0
198.41283,253.95685,171.35713,2430.0
200.59212,247.7107,169.47923,2421.0
204.3172,243.49574,169.00977,2420.0
209.11491,240.55922,169.47923,2421.0
213.28143,236.873,169.47923,2421.0
217.38293,233.11467,169.47923,2421.0
222.6449,230.5556,170.41818,2423.0
224.76176,224.76176,169.00977,2420.0
228.65015,220.80492,169.00977,2420.0
233.76042,217.98509,169.94872,2422.0
236.873,213.28143,169.47923,2421.0
240.55923,209.11491,169.47923,2421.0
244.84851,205.4523,169.94872,2422.0
247.71065,200.59218,169.47923,2421.0
251.17377,196.23845,169.47923,2421.0
254.56033,191.825,169.47923,2421.0
257.8694,187.35306,169.47923,2421.0
261.82312,183.33054,169.94872,2422.0
265.71478,179.22694,170.41818,2423.0
268.80228,174.56224,170.41818,2423.0
271.05908,169.37654,169.94872,2422.0
274.73068,165.07483,170.41818,2423.0
277.56976,160.255,170.41818,2423.0
281.0966,155.81435,170.88765,2424.0
283.7731,150.88484,170.88765,2424.0
288.7233,147.11191,172.29607,2432.0
288.86606,140.88937,170.88765,2424.0
290.48068,135.45338,170.41818,2423.0
295.22028,131.4405,171.8266,2431.0
285.2779,121.09329,164.78453,2401.0
283.25452,114.4423,162.43716,2341.0
281.9115,108.21568,160.55928,2332.0
279.60867,101.76926,158.21193,2322.0
278.00284,95.72404,156.33403,2313.0
276.2722,89.76628,154.45615,2304.0
272.73053,83.38213,151.63931,2243.0
270.74924,77.63609,149.76143,2234.0
270.3572,72.44202,148.8225,2232.0
267.29672,66.64455,146.47513,2222.0
271.86038,62.76393,148.35301,2231.0
264.27783,56.17397,143.65831,2211.0
262.61777,51.04773,142.2499,2203.0
261.7296,46.15002,141.31094,2201.0
259.87897,41.16078,139.90253,2143.0
257.0603,36.12749,138.02464,2134.0
255.89894,31.42042,137.0857,2132.0
254.6521,26.76502,136.14676,2130.0
252.44167,22.08582,134.73834,2122.0
251.02708,17.55352,133.7994,2120.0
249.53172,13.07743,132.86046,2113.0
250.60435,8.75129,133.32993,2114.0
246.30486,4.29928,130.98257,2104.0
245.45943,-2.0E-5,130.51309,2103.0
253.63972,-2.0E-5,140.59477,2130.0
240.4838,4.19767,133.32263,2100.0
241.248,8.42455,133.80743,2101.0
246.30475,12.90831,136.7163,2112.0
243.42448,17.0219,135.26187,2104.0
244.83293,21.42014,136.23148,2111.0
246.16147,25.87262,137.2011,2113.0
248.27673,30.48453,138.65553,2121.0
249.4391,35.0564,139.62515,2123.0
251.38086,39.81481,141.07957,2131.0
254.09303,44.80349,143.01881,2140.0
260.1408,50.56625,146.8973,2203.0
255.79666,54.37123,144.95805,2144.0
256.51318,59.22075,145.92767,2201.0
261.38107,65.16961,149.32133,2213.0
259.35907,69.49508,148.83653,2212.0
262.3104,75.21629,151.26057,2222.0
262.63052,80.29425,152.2302,2224.0
263.68466,85.67635,153.68463,2232.0
265.45712,91.4042,155.62387,2241.0
265.4652,96.62146,156.59349,2243.0
267.82114,102.8069,159.01753,2303.0
269.22986,108.77596,160.95677,2312.0
269.70572,114.48329,162.4112,2320.0
272.4607,121.30728,165.32005,2331.0
272.68008,127.15283,166.77449,2334.0
275.13605,134.19281,169.68335,2400.0
275.09003,140.1654,171.13777,2403.0
273.37418,145.35562,171.62257,2404.0
270.79575,150.10449,171.62257,2404.0
268.1348,154.80771,171.62257,2404.0
264.6425,159.01324,171.13777,2403.0
261.827,163.60771,171.13777,2403.0
258.9318,168.15227,171.13777,2403.0
255.95767,172.64568,171.13777,2403.0
252.90562,177.08644,171.13777,2403.0
249.06895,180.95917,170.65295,2402.0
245.87283,185.27849,170.65295,2402.0
242.60184,189.54132,170.65295,2402.0
244.69456,198.1498,174.53143,2420.0
235.16916,197.33035,170.16815,2401.0
231.68947,201.40454,170.16815,2401.0
228.13916,205.41743,170.16815,2401.0
225.15906,209.9642,170.65295,2402.0
221.46036,213.86182,170.65295,2402.0
217.07579,217.07579,170.16815,2401.0
212.64665,220.2021,169.68335,2400.0
208.77122,223.87975,169.68335,2400.0
205.41745,228.13916,170.16815,2401.0
201.40454,231.68947,170.16815,2401.0
197.33035,235.16916,170.16815,2401.0
192.09517,237.21783,169.19853,2344.0
187.92592,240.53421,169.19853,2344.0
183.69942,243.77731,169.19853,2344.0
179.4169,246.94621,169.19853,2344.0
175.58145,250.75629,169.68335,2400.0
170.6893,253.05734,169.19853,2344.0
166.72322,256.73123,169.68335,2400.0
161.29031,258.1184,168.71373,2343.0
161.71602,269.1407,174.04663,2414.0
152.62115,264.34756,169.19853,2344.0
148.4084,267.7359,169.68335,2400.0
143.30258,269.51294,169.19853,2344.0
138.57707,271.9729,169.19853,2344.0
133.426,273.56384,168.71373,2343.0
129.00099,276.64346,169.19853,2344.0
124.15321,278.85272,169.19853,2344.0
119.26768,280.97702,169.19853,2344.0
114.67342,283.82666,169.68335,2400.0
109.38905,284.96823,169.19853,2344.0
104.399,286.83392,169.19853,2344.0
99.37716,288.61227,169.19853,2344.0
94.59531,291.1345,169.68335,2400.0
91.28993,298.5959,173.07701,2412.0
84.37726,294.25845,169.68335,2400.0
15.39304,57.44761,32.96705,233.0
12.48379,50.06975,28.60376,214.0
12.59178,54.54101,31.02781,224.0
11.09246,52.18594,29.57338,221.0
10.01312,51.51303,29.08857,220.0
8.50506,48.23461,27.14933,211.0
7.38832,46.64799,26.17972,204.0
6.81652,48.50205,27.14933,211.0
6.50195,52.95413,29.57338,221.0
6.12532,58.27851,32.48224,232.0
5.4122,61.8617,34.42148,241.0
4.39275,62.81923,34.90629,242.0
3.34151,63.75974,35.3911,243.0
2.25876,64.68243,35.87591,244.0
1.19061,68.20995,37.81514,303.0
0.0,74.34268,41.20881,320.0
-1.12955,64.71201,35.87591,244.0
-2.4419,69.92696,38.78476,310.0
-3.34151,63.75974,35.3911,243.0
-4.45376,63.69171,35.3911,243.0
-5.64089,64.47558,35.87591,244.0
-6.8567,65.23714,36.36072,300.0
-7.78102,63.37133,35.3911,243.0
-9.00754,64.092,35.87591,244.0
-10.12473,63.92503,35.87591,244.0
-11.23884,63.73859,35.87591,244.0
-12.18263,62.67419,35.3911,243.0
-13.63827,64.16304,36.36072,300.0
-14.55925,63.06305,35.87591,244.0
-15.23446,61.10207,34.90629,242.0
-16.52488,61.6717,35.3911,243.0
-14.70575,51.28505,29.57338,221.0
-14.83142,48.51138,28.11895,213.0
-15.6758,48.24514,28.11895,213.0
-17.0849,49.61815,29.08857,220.0
-23.33273,64.10615,37.81514,303.0
-29.77639,77.57014,46.05691,340.0
-30.79801,76.22773,45.5721,334.0
-30.41497,71.65316,43.14805,324.0
-30.59363,68.71442,41.69362,321.0
-30.67931,65.792,40.23919,313.0
-30.67265,62.88824,38.78476,310.0
-31.36846,61.56406,38.29995,304.0
-31.6169,59.46274,37.33033,302.0
-35.19399,63.49165,40.23919,313.0
-32.79824,56.80822,36.36072,300.0
-33.78468,56.22716,36.36072,300.0
-33.83389,54.14553,35.3911,243.0
-34.29735,52.81328,34.90629,242.0
-35.21384,52.20667,34.90629,242.0
-36.11961,51.58415,34.90629,242.0
-38.04256,52.36108,35.87591,244.0
-38.95059,51.68918,35.87591,244.0
-39.30829,50.31231,35.3911,243.0
-34.67621,42.82155,30.543,223.0
-32.0451,38.18986,27.63414,212.0
-35.57574,40.9252,30.05819,222.0
-39.79597,44.1979,32.96705,233.0
-42.94722,46.05526,34.90629,242.0
-42.52934,44.04042,33.93667,240.0
-40.81767,40.81767,31.99743,231.0
-40.26552,38.88396,31.02781,224.0
-40.29836,37.57882,30.543,223.0
-39.64812,35.69933,29.57338,221.0
-42.24537,36.72334,31.02781,224.0
-42.20985,35.41827,30.543,223.0
-38.0636,30.8233,27.14933,211.0
-42.73101,33.38512,30.05819,222.0
-40.51314,30.52884,28.11895,213.0
-40.33219,29.30305,27.63414,212.0
-42.27035,29.59801,28.60376,214.0
-44.23065,29.83395,29.57338,221.0
-42.54403,27.62842,28.11895,213.0
-37.8277,23.63737,24.72529,201.0
-47.23081,28.37914,30.543,223.0
-43.17425,24.92666,27.63414,212.0
-42.07278,23.32132,26.66453,210.0
-41.70115,22.17289,26.17972,204.0
-41.30247,21.04466,25.69491,203.0
-40.09126,19.55381,24.72529,201.0
-42.01176,19.5904,25.69491,203.0
-38.35223,17.07552,23.27086,143.0
-39.44949,16.74532,23.75567,144.0
-38.9248,15.72664,23.27086,143.0
-38.37681,14.73148,22.78605,142.0
-35.34057,12.86292,20.84681,133.0
-34.73271,11.95943,20.362,132.0
-39.92701,12.97307,23.27086,143.0
-46.00217,14.06427,26.66453,210.0
-46.24062,13.25928,26.66453,210.0
-46.46498,12.45025,26.66453,210.0
-49.22111,12.2722,28.11895,213.0
-49.42779,11.4113,28.11895,213.0
-50.47493,10.72878,28.60376,214.0
-48.93738,9.51246,27.63414,212.0
-55.12527,9.72007,31.02781,224.0
-51.8311,8.20924,29.08857,220.0
-52.83259,7.42514,29.57338,221.0
-59.89893,7.35466,33.45186,234.0
-53.92937,5.6682,30.05819,222.0
-55.76266,4.8786,31.02781,224.0
-54.96682,3.84365,30.543,223.0
-54.15211,2.83799,30.05819,222.0
-55.06748,1.923,30.543,223.0
-55.96714,0.97691,31.02781,224.0
-55.97566,0.0,31.02781,224.0
-54.5596,0.0,31.5,223.0
-54.55129,0.9522,31.5,223.0
-53.66087,1.87388,31.0,222.0
-57.07934,2.9914,33.0,231.0
-52.69886,3.68506,30.5,221.0
-52.62652,4.60422,30.5,221.0
-56.84456,5.9746,33.0,231.0
-51.57421,6.33252,30.0,220.0
-52.31343,7.35217,30.5,221.0
-54.74324,8.67048,32.0,224.0
-51.17211,9.02302,30.0,220.0
-51.00684,9.91473,30.0,220.0
-49.97894,10.62335,29.5,214.0
-49.78592,11.49399,29.5,214.0
-47.89714,11.9421,28.5,212.0
-46.84491,12.55206,28.0,211.0
-46.61871,13.3677,28.0,211.0
-52.1756,15.95168,31.5,223.0
-46.94743,15.25414,28.5,212.0
-41.761,14.37946,25.5,201.0
-44.75887,16.2909,27.5,210.0
-44.46774,17.06957,27.5,210.0
-35.33045,14.27443,22.0,134.0
-39.85903,16.91915,25.0,200.0
-31.64614,14.08977,20.0,130.0
-35.31985,16.46992,22.5,140.0
-36.58379,17.84311,23.5,142.0
-37.81008,19.2652,24.5,144.0
-40.52671,21.54844,26.5,203.0
-41.65936,23.09216,27.5,210.0
-35.25,20.3516,23.5,142.0
-40.08575,24.08595,27.0,204.0
-41.12815,25.69972,28.0,211.0
-40.67336,26.41359,28.0,211.0
-37.33432,25.18231,26.0,202.0
-38.30795,26.82351,27.0,204.0
-38.53461,27.99703,27.5,210.0
-40.80668,30.75004,29.5,214.0
-40.2638,31.45753,29.5,214.0
-37.68958,30.52042,28.0,211.0
-41.13166,34.51356,31.0,222.0
-37.25507,32.38533,28.5,212.0
-37.32777,33.61008,29.0,213.0
-42.43585,39.57207,33.5,232.0
-38.62392,37.29869,31.0,222.0
-40.41658,40.41658,33.0,231.0
-37.90028,39.24689,31.5,223.0
-37.20956,39.90236,31.5,223.0
-37.66647,41.83285,32.5,230.0
-37.49881,43.13744,33.0,231.0
-34.51357,41.13166,31.0,222.0
-32.70045,40.38169,30.0,220.0
-34.6566,44.35843,32.5,230.0
-33.35597,44.26487,32.0,224.0
-36.65066,50.4453,36.0,242.0
-35.26796,50.36786,35.5,241.0
-35.35209,52.41163,36.5,243.0
-33.96033,52.29432,36.0,242.0
-32.12465,51.41018,35.0,240.0
-31.66856,52.70533,35.5,241.0
-30.7439,53.25,35.5,241.0
-29.80988,53.77845,35.5,241.0
-29.27335,55.05516,36.0,242.0
-29.09438,57.10093,37.0,244.0
-28.0934,57.60001,37.0,244.0
-27.08386,58.08153,37.0,244.0
-26.77056,60.12767,38.0,301.0
-26.39388,62.18008,39.0,303.0
-25.30467,62.63125,39.0,303.0
-24.82846,64.68034,40.0,310.0
-23.99205,65.91761,40.5,311.0
-23.96577,69.60166,42.5,320.0
-23.55025,72.48024,44.0,323.0
-23.54773,77.02113,46.5,333.0
-22.43864,78.25284,47.0,334.0
-14.12106,52.70052,31.5,223.0
-12.15161,48.73744,29.0,213.0
-11.10436,48.09826,28.5,212.0
-9.90312,46.59053,27.5,210.0
-8.75801,45.05605,26.5,203.0
-7.81996,44.34916,26.0,202.0
-7.31572,46.18961,27.0,204.0
-7.23165,51.45584,30.0,220.0
-6.86023,55.87206,32.5,230.0
-6.15565,58.56712,34.0,233.0
-5.35902,61.25382,35.5,241.0
-4.28917,61.33802,35.5,241.0
-3.21802,61.40353,35.5,241.0
-2.44813,70.10532,40.5,311.0
-1.08822,62.34433,36.0,242.0
0.0,60.62178,35.0,240.0
1.02776,58.88076,34.0,233.0
2.05522,58.85385,34.0,233.0
3.26335,62.26837,36.0,242.0
3.8663,55.29061,32.0,224.0
5.0571,57.8029,33.5,232.0
5.79356,55.122,32.0,224.0
6.5436,53.29335,31.0,222.0
6.99059,49.74064,29.0,213.0
7.45119,47.04498,27.5,210.0
7.81995,44.34916,26.0,202.0
8.59276,44.20593,26.0,202.0
9.90312,46.59053,27.5,210.0
10.90954,47.25444,28.0,211.0
11.9421,47.89714,28.5,212.0
13.67278,51.02749,30.5,221.0
15.27737,53.27853,32.0,224.0
13.92607,45.55013,27.5,210.0
16.32461,50.24199,30.5,221.0
95.58113,277.5878,169.50002,2324.0
100.41116,275.8774,169.50002,2324.0
105.52095,274.89148,170.00002,2330.0
110.3024,273.00803,170.00002,2330.0
115.38863,271.83856,170.50002,2331.0
120.11527,269.78336,170.50002,2331.0
124.80538,267.64597,170.50002,2331.0
129.07777,264.64868,170.00002,2330.0
133.28368,261.584,169.50002,2324.0
137.82869,259.21805,169.50002,2324.0
142.75151,257.53058,170.00002,2330.0
147.65735,255.74998,170.50002,2331.0
152.09828,253.13406,170.50002,2331.0
156.03403,249.70659,170.00002,2330.0
160.83989,247.6717,170.50002,2331.0
165.13783,244.82697,170.50002,2331.0
168.88881,241.19818,170.00002,2330.0
173.07254,238.21396,170.00002,2330.0
177.72481,235.84875,170.50002,2331.0
181.81386,232.71112,170.50002,2331.0
185.3025,228.82959,170.00002,2330.0
190.38127,226.88756,171.00002,2332.0
193.74382,222.87682,170.50002,2331.0
197.0246,218.81796,170.00002,2330.0
200.81348,215.3461,170.00002,2330.0
204.54117,211.80864,170.00002,2330.0
208.20662,208.20662,170.00002,2330.0
211.8086,204.54123,170.00002,2330.0
215.3461,200.81348,170.00002,2330.0
218.17438,196.44511,169.50002,2324.0
220.91602,192.03934,169.00002,2323.0
225.56073,189.26793,170.00002,2330.0
228.82954,185.30255,170.00002,2330.0
231.34625,180.7475,169.50002,2324.0
235.15712,177.20363,170.00002,2330.0
238.21396,173.07254,170.00002,2330.0
240.48878,168.39207,169.50002,2324.0
244.10895,164.65361,170.00002,2330.0
246.9454,160.36821,170.00002,2330.0
251.17545,156.95187,171.00002,2332.0
253.13408,152.09828,170.50002,2331.0
255.74998,147.65733,170.50002,2331.0
259.80292,144.01108,171.50002,2333.0
260.74738,138.64183,170.50002,2331.0
263.8989,134.46324,171.00002,2332.0
266.20544,129.83705,171.00002,2332.0
269.21573,125.53738,171.50002,2333.0
272.15683,121.172,172.00002,2334.0
271.83856,115.38863,170.50002,2331.0
275.4169,111.27569,171.50002,2333.0
276.50848,106.14165,171.00002,2332.0
276.6912,100.70738,170.00002,2330.0
275.95013,95.01723,168.50002,2322.0
274.27182,89.11633,166.50002,2313.0
272.4726,83.30327,164.50002,2304.0
270.55502,77.58041,162.50002,2300.0
268.52173,71.9502,160.50002,2241.0
270.57684,67.46237,161.00002,2242.0
264.96237,61.1714,157.00002,2224.0
262.6012,55.81758,155.00002,2220.0
266.93582,51.88707,157.00002,2224.0
259.27203,45.71668,152.00002,2204.0
257.46432,40.77834,150.50002,2201.0
256.42157,36.03772,149.50002,2144.0
256.15192,31.45148,149.00002,2143.0
254.07796,26.70468,147.50002,2140.0
252.77986,22.11541,146.50002,2133.0
250.53558,17.51915,145.00002,2130.0
249.93832,13.09874,144.50002,2124.0
247.53238,8.64401,143.00002,2121.0
245.04785,4.27734,141.50002,2113.0
250.28133,-2.0E-5,144.50002,2124.0
240.00685,-2.0E-5,144.21065,2110.0
239.11327,4.17375,143.69562,2104.0
244.14388,8.52568,146.78584,2120.0
240.53392,12.60587,144.7257,2111.0
241.98744,16.92141,145.75577,2113.0
243.36308,21.29154,146.78584,2120.0
245.51184,25.80434,148.33096,2123.0
247.57643,30.39855,149.87607,2131.0
250.4035,35.19194,151.93622,2140.0
252.29103,39.95897,153.48134,2143.0
253.2435,44.65369,154.51141,2200.0
254.10846,49.39368,155.54149,2202.0
254.8846,54.17737,156.57156,2204.0
255.57063,59.00315,157.60164,2211.0
256.9971,64.07656,159.14676,2214.0
259.1515,69.43946,161.20691,2223.0
260.37204,74.66048,162.75201,2231.0
262.3082,80.19571,164.81218,2240.0
264.12952,85.82089,166.87233,2244.0
265.83337,91.53376,168.93248,2303.0
265.80634,96.74562,169.96255,2310.0
266.47815,102.29137,171.50766,2313.0
265.44705,107.24761,172.0227,2314.0
264.32394,112.19886,172.53775,2320.0
268.59003,119.58397,176.65805,2333.0
260.24722,121.35529,172.53775,2320.0
258.86008,126.25449,173.05278,2321.0
255.85345,130.36388,172.53775,2320.0
252.7825,134.40685,172.0227,2314.0
250.39828,138.798,172.0227,2314.0
247.93777,143.14696,172.0227,2314.0
245.40176,147.45224,172.0227,2314.0
242.06406,151.25844,171.50766,2313.0
240.82513,156.39368,172.53775,2320.0
236.63774,159.61421,171.50766,2313.0
233.81607,163.71979,171.50766,2313.0
231.61662,168.27931,172.0227,2314.0
227.95988,171.78012,171.50766,2313.0
224.92722,175.73239,171.50766,2313.0
221.82597,179.63116,171.50766,2313.0
218.65721,183.47519,171.50766,2313.0
216.06876,187.82567,172.0227,2314.0
211.48381,190.4209,170.99263,2312.0
208.7552,194.66736,171.50766,2313.0
204.70938,197.6856,170.99263,2312.0
201.83424,201.83424,171.50766,2313.0
197.68555,204.70943,170.99263,2312.0
194.08278,208.12831,170.99263,2312.0
190.4209,211.48381,170.99263,2312.0
186.70097,214.77493,170.99263,2312.0
182.92421,218.00058,170.99263,2312.0
179.63112,221.82602,171.50766,2313.0
175.73239,224.9272,171.50766,2313.0
171.26427,227.27531,170.99263,2312.0
167.27165,230.2297,170.99263,2312.0
162.73648,232.41176,170.47758,2311.0
159.13484,235.92715,170.99263,2312.0
154.52629,237.94962,170.47758,2311.0
150.80421,241.33713,170.99263,2312.0
146.12782,243.19756,170.47758,2311.0
144.43271,250.16475,173.56783,2322.0
137.96689,248.8989,170.99263,2312.0
133.602,251.26883,170.99263,2312.0
128.80724,252.79851,170.47758,2311.0
124.75146,255.77841,170.99263,2312.0
120.26853,257.91666,170.99263,2312.0
115.74892,259.97635,170.99263,2312.0
111.1941,261.95685,170.99263,2312.0
106.28428,263.0628,170.47758,2311.0
101.67701,264.87766,170.47758,2311.0
97.33193,267.4173,170.99263,2312.0
92.37096,268.2648,170.47758,2311.0
87.67502,269.83603,170.47758,2311.0
83.20302,272.14478,170.99263,2312.0
78.44076,273.55542,170.99263,2312.0
73.6546,274.88275,170.99263,2312.0
12.23468,49.07064,30.38725,214.0
11.37642,49.27669,30.38725,214.0
11.94041,56.17522,34.50755,232.0
10.14043,52.16796,31.93236,222.0
8.78189,49.80456,30.38725,214.0
7.91134,49.95024,30.38725,214.0
7.03838,50.0807,30.38725,214.0
6.47667,52.74825,31.93236,222.0
4.92791,46.88594,28.32709,210.0
3.88477,44.40309,26.78198,202.0
2.98965,42.75396,25.7519,200.0
2.24303,42.79963,25.7519,200.0
1.46582,41.97561,25.23686,144.0
0.73302,41.9948,25.23686,144.0
0.0,42.0012,25.23686,144.0
-0.7779,44.56591,26.78198,202.0
-1.52565,43.6889,26.26694,201.0
-2.24303,42.79963,25.7519,200.0
-3.16903,45.3192,27.29702,203.0
-4.03418,46.1109,27.81205,204.0
-4.92791,46.88594,28.32709,210.0
-6.26774,51.04669,30.90228,220.0
-6.79979,48.38305,29.35717,212.0
-7.1068,44.87055,27.29702,203.0
-7.59112,43.0514,26.26694,201.0
-8.17776,42.07094,25.7519,200.0
-9.26718,43.59868,26.78198,202.0
-10.02668,43.43031,26.78198,202.0
-11.19785,44.91211,27.81205,204.0
-12.64552,47.19372,29.35717,212.0
-13.93977,48.61377,30.38725,214.0
-15.53791,50.82222,31.93236,222.0
-17.21715,52.98895,33.47747,230.0
-21.76718,63.21648,40.17297,303.0
-26.9715,74.10359,47.3835,332.0
-26.11041,68.01994,43.77823,320.0
-26.65135,65.96439,42.74816,313.0
-27.4636,64.70019,42.23312,312.0
-28.58859,64.21103,42.23312,312.0
-30.06713,64.47916,42.74816,313.0
-30.43635,62.40377,41.71808,311.0
-31.52081,61.86308,41.71808,311.0
-31.38843,59.03304,40.17297,303.0
-31.99834,57.72655,39.65793,302.0
-33.00094,57.15931,39.65793,302.0
-33.55201,55.83992,39.14289,301.0
-34.06721,54.51893,38.62785,300.0
-35.01351,53.91607,38.62785,300.0
-34.9905,51.87555,37.59778,243.0
-35.89052,51.25698,37.59778,243.0
-35.77195,49.23587,36.5677,241.0
-35.07822,46.55037,35.02259,233.0
-38.52392,49.30836,37.59778,243.0
-38.83917,47.96238,37.08274,242.0
-40.22129,47.93386,37.59778,243.0
-41.05172,47.22461,37.59778,243.0
-41.86965,46.50096,37.59778,243.0
-43.25941,46.39005,38.11282,244.0
-43.46701,45.0114,37.59778,243.0
-38.79096,38.79097,32.96243,224.0
-38.22886,36.91718,31.93236,222.0
-40.12112,37.41355,32.96243,224.0
-38.85697,34.98697,31.41732,221.0
-38.81474,33.74114,30.90228,220.0
-40.05433,33.60957,31.41732,221.0
-38.63636,31.28711,29.87221,213.0
-43.22925,33.77439,32.96243,224.0
-42.44299,31.98308,31.93236,222.0
-40.91431,29.72599,30.38725,214.0
-42.83117,29.99071,31.41732,221.0
-41.21619,27.80067,29.87221,213.0
-43.85174,28.47766,31.41732,221.0
-45.06898,28.16223,31.93236,222.0
-41.14521,24.72253,28.84213,211.0
-46.02438,26.57219,31.93236,222.0
-41.98294,23.27153,28.84213,211.0
-40.86903,21.73045,27.81205,204.0
-46.58824,23.73789,31.41732,221.0
-42.37293,20.66666,28.32709,210.0
-40.39659,18.83724,26.78198,202.0
-39.93613,17.78071,26.26694,201.0
-41.02939,17.41594,26.78198,202.0
-38.94283,15.73393,25.23686,144.0
-36.01056,13.82316,23.17671,140.0
-36.24632,13.19258,23.17671,140.0
-38.09198,13.11612,24.20679,142.0
-48.09766,15.62788,30.38725,214.0
-45.90394,14.03424,28.84213,211.0
-48.61377,13.93977,30.38725,214.0
-46.36576,12.42367,28.84213,211.0
-50.73405,12.64942,31.41732,221.0
-50.94709,11.76206,31.41732,221.0
-51.98304,11.04934,31.93236,222.0
-51.32654,9.97687,31.41732,221.0
-52.33699,9.22842,31.93236,222.0
-51.64346,8.17952,31.41732,221.0
-52.62718,7.39627,31.93236,222.0
-53.59902,6.58113,32.4474,223.0
-54.55819,5.7343,32.96243,224.0
-53.79605,4.70654,32.4474,223.0
-53.87,3.76696,32.4474,223.0
-53.92753,2.82622,32.4474,223.0
-54.82529,1.91454,32.96243,224.0
-59.99257,1.04717,36.05266,240.0
-54.85871,0.0,32.96243,224.0
-55.12312,0.0,34.44476,230.0
-59.35432,1.03603,37.09435,240.0
-53.39448,1.86458,33.38492,223.0
-52.50692,2.75177,32.855,222.0
-54.98885,3.84519,34.44476,230.0
-53.22372,4.65647,33.38492,223.0
-53.13435,5.58465,33.38492,223.0
-53.02879,6.51112,33.38492,223.0
-52.90708,7.43561,33.38492,223.0
-51.93164,8.22516,32.855,222.0
-52.61535,9.27751,33.38492,223.0
-51.61295,10.03254,32.855,222.0
-50.60049,10.75547,32.32508,221.0
-51.23138,11.8277,32.855,222.0
-50.1943,12.51484,32.32508,221.0
-53.24485,14.26691,34.44476,230.0
-48.91177,14.02522,31.79516,220.0
-48.65954,14.87671,31.79516,220.0
-48.3925,15.72368,31.79516,220.0
-43.29964,14.90926,28.61564,204.0
-47.01736,17.11292,31.26524,214.0
-45.91982,17.62697,30.73532,213.0
-34.59704,13.97811,23.31645,134.0
-36.68972,15.57386,24.90621,142.0
-36.41233,16.21181,24.90621,142.0
-34.58667,16.12803,23.84637,140.0
-37.3488,18.21623,25.96605,144.0
-36.26958,18.48028,25.43613,143.0
-38.93666,20.70299,27.55581,202.0
-40.05286,22.20166,28.61564,204.0
-39.65928,22.8973,28.61564,204.0
-39.25363,23.58596,28.61564,204.0
-40.99358,25.61563,30.2054,212.0
-39.11781,25.4034,29.14557,210.0
-39.37157,26.55646,29.67548,211.0
-42.3755,29.67164,32.32508,221.0
-44.59554,32.40056,34.44476,230.0
-40.63688,30.62208,31.79516,220.0
-38.75972,30.28241,30.73532,213.0
-42.83871,34.69011,34.44476,230.0
-37.67926,31.61666,30.73532,213.0
-36.48171,31.71307,30.2054,212.0
-37.81335,34.04729,31.79516,220.0
-37.21339,34.70204,31.79516,220.0
-36.60208,35.34622,31.79516,220.0
-33.58099,33.58099,29.67548,211.0
-35.34622,36.60208,31.79516,220.0
-35.85878,38.45383,32.855,222.0
-38.01948,42.22491,35.5046,232.0
-40.61498,46.72219,38.68411,243.0
-38.70315,46.12462,37.62428,241.0
-37.89227,46.79305,37.62428,241.0
-37.06985,47.44724,37.62428,241.0
-36.7465,48.76425,38.15419,242.0
-35.88985,49.39814,38.15419,242.0
-35.02227,50.01698,38.15419,242.0
-34.61824,51.32365,38.68411,243.0
-32.79349,50.49754,37.62428,241.0
-31.45779,50.34299,37.09435,240.0
-31.01117,51.61125,37.62428,241.0
-30.52973,52.87904,38.15419,242.0
-30.01335,54.14553,38.68411,243.0
-29.86009,56.15865,39.74395,300.0
-31.95548,62.71616,43.98331,313.0
-27.88198,57.16654,39.74395,300.0
-27.59685,59.18163,40.80379,302.0
-29.31924,65.85209,45.04314,320.0
-26.50871,62.45058,42.39355,310.0
-25.09707,62.11742,41.86363,304.0
-24.31306,63.33768,42.39355,310.0
-23.20396,63.75236,42.39355,310.0
-21.8117,63.34577,41.86363,304.0
-20.70284,63.71679,41.86363,304.0
-19.58768,64.0684,41.86363,304.0
-18.46655,64.40049,41.86363,304.0
-16.90081,63.07467,40.80379,302.0
-13.95097,55.9543,36.03452,233.0
-12.78154,55.36295,35.5046,232.0
-10.40283,48.94145,31.26524,214.0
-9.38528,48.28308,30.73532,213.0
-9.13025,51.78019,32.855,222.0
-6.89853,43.55557,27.55581,202.0
-6.13732,43.66933,27.55581,202.0
-5.2709,42.92807,27.02589,201.0
-4.34361,41.32671,25.96605,144.0
-3.69562,42.24105,26.49597,200.0
-2.89869,41.45313,25.96605,144.0
-2.17479,41.49741,25.96605,144.0
-1.42063,40.68151,25.43613,143.0
-0.69562,39.85219,24.90621,142.0
0.0,40.70631,25.43613,143.0
0.84362,48.33138,30.2054,212.0
1.45022,41.52904,25.96605,144.0
2.1304,40.65052,25.43613,143.0
3.017,43.1451,27.02589,201.0
3.84344,43.93069,27.55581,202.0
4.52091,43.01352,27.02589,201.0
5.2709,42.92807,27.02589,201.0
6.25535,44.50913,28.08573,203.0
7.29652,46.06839,29.14557,210.0
7.95215,45.09887,28.61564,204.0
8.89984,45.78569,29.14557,210.0
10.40282,48.94146,31.26524,214.0
11.06462,47.92613,30.73532,213.0
12.72001,51.01716,32.855,222.0
13.60844,50.7874,32.855,222.0
15.42775,53.80294,34.97468,231.0
16.36439,53.5255,34.97468,231.0
82.81134,254.86716,167.45451,2231.0
89.17946,258.996,171.16396,2243.0
93.10589,255.80635,170.10411,2241.0
98.16397,255.7259,171.16396,2243.0
102.61206,253.97375,171.16396,2243.0
107.36025,252.92488,171.69386,2244.0
111.75802,251.01266,171.69386,2244.0
116.12181,249.02397,171.69386,2244.0
120.45016,246.95946,171.69386,2244.0
124.35683,244.06409,171.16396,2243.0
128.59743,241.85658,171.16396,2243.0
132.38765,238.8337,170.63403,2242.0
136.95978,237.22125,171.16396,2243.0
140.6422,234.06795,170.63403,2242.0
144.70586,231.57773,170.63403,2242.0
148.72539,229.017,170.63403,2242.0
153.64806,227.79265,171.69386,2244.0
160.03232,228.5498,174.34346,2304.0
160.50737,220.91946,170.63403,2242.0
163.82816,217.40727,170.10411,2241.0
168.6417,215.85153,171.16396,2243.0
171.84943,212.21642,170.63403,2242.0
176.07208,209.83452,171.16396,2243.0
179.15099,206.08966,170.63403,2242.0
182.72049,202.93164,170.63403,2242.0
186.81265,200.33206,171.16396,2243.0
190.28046,197.04124,171.16396,2243.0
192.49103,192.49103,170.10411,2241.0
195.82112,189.1023,170.10411,2241.0
199.71184,186.23428,170.63403,2242.0
202.30142,182.15303,170.10411,2241.0
204.80962,178.03825,169.57419,2240.0
208.53523,174.98184,170.10411,2241.0
211.55731,171.31578,170.10411,2241.0
214.51498,167.59747,170.10411,2241.0
218.08456,164.33853,170.63403,2242.0
220.23338,160.0089,170.10411,2241.0
222.99237,156.14095,170.10411,2241.0
225.68343,152.22543,170.10411,2241.0
229.01701,148.72537,170.63403,2242.0
230.85854,144.25645,170.10411,2241.0
234.06795,140.6422,170.63403,2242.0
237.22125,136.95976,171.16396,2243.0
238.8337,132.38765,170.63403,2242.0
241.1078,128.1993,170.63403,2242.0
249.35338,127.05193,174.87338,2310.0
246.95946,120.45016,171.69386,2244.0
248.25539,115.7634,171.16396,2243.0
251.01266,111.75802,171.69386,2244.0
252.14424,107.02888,171.16396,2243.0
253.97374,102.61209,171.16396,2243.0
257.30936,98.7718,172.22379,2300.0
258.19705,93.97607,171.69386,2244.0
259.79785,89.45555,171.69386,2244.0
262.93256,85.43198,172.75371,2301.0
262.7615,80.3343,171.69386,2244.0
265.75394,76.20371,172.75371,2301.0
264.58594,70.89561,171.16396,2243.0
263.31436,65.65163,169.57419,2240.0
265.24634,61.23696,170.10411,2241.0
260.46808,55.36418,166.39467,2224.0
258.89725,50.32453,164.80492,2221.0
257.2306,45.35672,163.21516,2213.0
256.3078,40.59516,162.15532,2211.0
255.29765,35.87976,161.09547,2204.0
253.35977,31.10865,159.50572,2201.0
253.0207,26.59356,158.9758,2200.0
255.13593,22.32154,160.03564,2202.0
251.25673,17.56958,157.38605,2142.0
249.83131,13.09313,156.3262,2140.0
254.25943,8.87892,158.9758,2200.0
244.20064,4.26255,152.61678,2123.0
240.84564,-2.0E-5,150.4971,2114.0
240.69846,-2.0E-5,156.3114,2122.0
236.46909,4.1276,153.58821,2112.0
236.36102,8.2539,153.58821,2112.0
238.69354,12.50942,155.22212,2120.0
240.94875,16.84878,156.85605,2123.0
243.12444,21.27066,158.48996,2131.0
245.21841,25.7735,160.12387,2134.0
247.22852,30.35583,161.7578,2142.0
254.13565,35.71646,166.65955,2211.0
250.16023,39.62148,164.48099,2202.0
251.08249,44.27265,165.57027,2204.0
256.03442,49.76805,169.38274,2221.0
252.66583,53.70576,167.74883,2213.0
252.50722,58.2959,168.29346,2214.0
253.07889,63.09964,169.38274,2221.0
253.55928,67.94103,170.47202,2223.0
253.9473,72.81821,171.5613,2230.0
254.2418,77.72956,172.65057,2232.0
252.0489,81.89566,172.10594,2231.0
249.78827,86.00898,171.5613,2230.0
248.24915,90.35532,171.5613,2230.0
246.63443,94.67408,171.5613,2230.0
244.94456,98.96406,171.5613,2230.0
242.4081,102.89614,171.01666,2224.0
240.57541,107.11105,171.01666,2224.0
245.51025,114.48333,175.91841,2243.0
237.44452,115.80942,171.5613,2230.0
236.13445,120.31654,172.10594,2231.0
233.25818,124.02557,171.5613,2230.0
231.05812,128.07758,171.5613,2230.0
228.78764,132.09062,171.5613,2230.0
225.00975,135.19948,170.47202,2223.0
222.6159,139.10588,170.47202,2223.0
220.85765,143.42664,171.01666,2224.0
218.32086,147.25932,171.01666,2224.0
215.71759,151.04709,171.01666,2224.0
212.37012,154.2959,170.47202,2223.0
209.64491,157.97879,170.47202,2223.0
206.8559,161.61353,170.47202,2223.0
204.00381,165.19907,170.47202,2223.0
201.7321,169.27333,171.01666,2224.0
198.11421,172.21803,170.47202,2223.0
198.81792,179.01648,173.73985,2234.0
191.9832,179.0272,170.47202,2223.0
188.22618,181.76794,169.92738,2222.0
185.61829,185.61827,170.47202,2223.0
181.76791,188.22623,169.92738,2222.0
179.02722,191.9832,170.47202,2223.0
175.08821,194.45514,169.92738,2222.0
171.66782,197.48126,169.92738,2222.0
168.73425,201.08965,170.47202,2223.0
164.67123,203.35208,169.92738,2222.0
161.09718,206.195,169.92738,2222.0
157.47408,208.97513,169.92738,2222.0
153.30998,211.01312,169.38274,2221.0
