185.88521,103.03783,117.80872,1433.0
190.11816,109.76479,121.68719,2001.0
197.9196,118.92208,127.98972,2024.0
202.48944,126.52947,132.35301,2043.0
200.25037,130.04411,132.35301,2043.0
197.95027,133.51918,132.35301,2043.0
194.87346,136.45187,131.8682,2042.0
191.75479,139.318,131.38339,2041.0
187.89713,141.59067,130.41377,2034.0
185.39743,144.84834,130.41377,2034.0
182.84122,148.06194,130.41377,2034.0
179.55936,150.6682,129.92896,2033.0
169.64157,147.46715,124.59605,2012.0
149.49289,134.60402,111.5062,1410.0
140.72441,131.22763,106.6581,1340.0
137.15442,132.44852,105.68848,1333.0
145.9541,145.95409,114.41505,1421.0
151.89046,157.28722,121.20238,2000.0
153.29773,164.3917,124.59605,2012.0
152.7463,169.64194,126.53529,2021.0
150.33615,172.94199,127.0201,2022.0
146.73283,174.86937,126.53529,2021.0
122.19234,150.89502,107.62772,1342.0
129.7712,166.09955,116.8391,1431.0
137.90616,183.00761,127.0201,2022.0
133.14894,183.26381,125.56567,2014.0
33.10965,47.28547,31.99743,231.0
30.32303,44.95575,30.05819,222.0
29.53383,45.47811,30.05819,222.0
27.3452,43.76146,28.60376,214.0
25.67636,42.73264,27.63414,212.0
24.48936,42.4168,27.14933,211.0
23.74534,42.83774,27.14933,211.0
21.35167,40.15666,25.2101,202.0
20.25052,39.74389,24.72529,201.0
19.1704,39.30515,24.24048,200.0
18.11189,38.84106,23.75567,144.0
17.07551,38.35224,23.27086,143.0
17.4288,41.05968,24.72529,201.0
16.70955,41.3576,24.72529,201.0
15.98522,41.64292,24.72529,201.0
15.55515,42.73743,25.2101,202.0
15.37641,44.65634,26.17972,204.0
18.91906,58.2269,33.93667,240.0
72.87852,238.37486,138.17072,2120.0
67.26073,234.56602,135.26187,2104.0
63.83584,238.23862,136.7163,2112.0
60.51464,242.71098,138.65553,2121.0
56.66302,245.43456,139.62515,2123.0
53.09834,249.8081,141.56439,2132.0
49.06429,252.41385,142.53401,2134.0
45.25909,256.67703,144.47325,2143.0
41.18302,260.01938,145.92767,2201.0
37.12567,264.16293,147.86691,2210.0
32.8295,267.37494,149.32133,2213.0
29.16384,277.47528,154.65425,2234.0
24.0881,275.32812,153.19981,2231.0
19.52333,279.19656,155.13905,2240.0
14.83079,282.98843,157.0783,2244.0
9.98127,285.82645,158.53273,2302.0
5.0677,290.32953,160.95677,2312.0
1.0E-5,292.99762,162.4112,2320.0
-5.22036,299.0744,165.80487,2332.0
-10.62228,304.18225,168.71373,2343.0
-15.97515,304.82397,169.19853,2344.0
-21.35365,305.37122,169.68335,2400.0
-26.75609,305.82333,170.16815,2401.0
-31.99792,304.43997,169.68335,2400.0
-37.30626,303.83517,169.68335,2400.0
-42.48152,302.2717,169.19853,2344.0
-47.88724,302.3481,169.68335,2400.0
-52.85291,299.74365,168.71373,2343.0
-58.07611,298.77557,168.71373,2343.0
-63.09974,296.861,168.22891,2342.0
-68.27108,295.71454,168.22891,2342.0
-73.42162,294.478,168.22891,2342.0
-78.32342,292.30695,167.74411,2341.0
-83.41296,290.8955,167.74411,2341.0
-88.7328,290.23184,168.22891,2342.0
-93.24396,286.97543,167.2593,2340.0
-99.66191,289.43924,169.68335,2400.0
-103.20246,283.54645,167.2593,2340.0
-108.13531,281.70212,167.2593,2340.0
-115.65634,286.25946,171.13777,2403.0
-117.90072,277.75662,167.2593,2340.0
-122.73026,275.6567,167.2593,2340.0
-127.52245,273.47278,167.2593,2340.0
-131.89238,270.41943,166.77449,2334.0
-136.59177,268.07642,166.77449,2334.0
-141.24954,265.65173,166.77449,2334.0
-145.44025,262.38116,166.28967,2333.0
-149.99728,259.80292,166.28967,2333.0
-154.95909,257.89523,166.77449,2334.0
-158.9729,254.40982,166.28967,2333.0
-167.19958,257.46475,170.16815,2401.0
-167.75484,248.70677,166.28967,2333.0
-171.56816,245.02472,165.80487,2332.0
-176.3324,242.7007,166.28967,2333.0
-180.54124,239.58632,166.28967,2333.0
-184.6951,236.39894,166.28967,2333.0
-188.79271,233.13956,166.28967,2333.0
-192.8328,229.80917,166.28967,2333.0
-196.81415,226.40877,166.28967,2333.0
-200.15031,222.28944,165.80487,2332.0
-204.59581,219.40215,166.28967,2333.0
-209.00131,216.42719,166.77449,2334.0
-212.12819,212.1282,166.28967,2333.0
-215.79803,208.39374,166.28967,2333.0
-220.04181,205.19229,166.77449,2334.0
-222.9394,200.73555,166.28967,2333.0
-226.40878,196.81415,166.28967,2333.0
-231.81917,194.51938,167.74411,2341.0
-233.13957,188.79271,166.28967,2333.0
-236.39896,184.6951,166.28967,2333.0
-233.9983,176.33037,162.4112,2320.0
-43.8701,31.87349,30.05819,222.0
-39.40456,27.59137,26.66453,210.0
-42.78046,28.85579,28.60376,214.0
-40.34348,26.19936,26.66453,210.0
-39.31114,24.56433,25.69491,203.0
-43.48234,26.12682,28.11895,213.0
-47.7189,27.55052,30.543,223.0
-52.01726,28.83364,32.96705,233.0
-54.82928,29.15325,34.42148,241.0
-56.10902,28.58897,34.90629,242.0
-56.59942,27.60538,34.90629,242.0
-61.03595,28.46153,37.33033,302.0
-57.52835,25.61327,34.90629,242.0
-62.79715,26.65581,37.81514,303.0
-56.76533,22.93468,33.93667,240.0
-67.77181,26.01516,40.23919,313.0
-59.17491,21.5379,34.90629,242.0
-59.54178,20.50188,34.90629,242.0
-59.05871,19.18934,34.42148,241.0
-70.25785,21.47998,40.724,314.0
-58.85169,16.87545,33.93667,240.0
-59.98206,16.07215,34.42148,241.0
-61.10207,15.23446,34.90629,242.0
-61.35864,14.16576,34.90629,242.0
-62.45203,13.27459,35.3911,243.0
-61.81564,12.01574,34.90629,242.0
-62.87726,11.08696,35.3911,243.0
-63.06118,9.98791,35.3911,243.0
-67.55643,9.49444,37.81514,303.0
-57.29463,7.0349,31.99743,231.0
-51.31988,5.39394,28.60376,214.0
-49.66362,4.345,27.63414,212.0
-47.11442,3.29456,26.17972,204.0
-49.785,2.60912,27.63414,212.0
-72.54922,2.53347,40.23919,313.0
-76.95482,1.34325,42.66324,323.0
-73.46806,0.0,40.724,314.0
-71.01408,0.0,41.0,312.0
-71.86916,1.25448,41.5,313.0
-70.10532,2.44813,40.5,311.0
-70.05192,3.67127,40.5,311.0
-69.97718,4.89328,40.5,311.0
-77.64569,6.79312,45.0,330.0
-75.79275,7.96614,44.0,323.0
-55.01249,6.75468,32.0,224.0
-48.02545,6.74954,28.0,211.0
-45.33425,7.18024,26.5,203.0
-44.34916,7.81995,26.0,202.0
-42.5057,8.26227,25.0,200.0
-44.89634,9.54301,26.5,203.0
-47.25444,10.90955,28.0,211.0
-52.09864,12.98965,31.0,222.0
-56.88311,15.24178,34.0,233.0
-59.93835,17.18704,36.0,242.0
-59.62926,18.23049,36.0,242.0
-59.30201,19.26839,36.0,242.0
-58.13786,20.01847,35.5,241.0
-57.77963,21.03007,35.5,241.0
-65.48885,25.13881,40.5,311.0
-58.61642,23.68257,36.5,243.0
-55.80264,23.68682,35.0,240.0
-55.38075,24.6571,35.0,240.0
-58.86642,27.44986,37.5,300.0
-55.26487,26.95448,35.5,241.0
-57.87257,29.48755,37.5,300.0
-55.81982,29.67992,36.5,243.0
-52.26356,28.97016,34.5,234.0
-48.75,28.14583,32.5,230.0
-47.50903,28.5463,32.0,224.0
-43.33144,27.07649,29.5,214.0
-39.22074,25.47025,27.0,204.0
-35.18041,23.72949,24.5,144.0
-35.47032,24.83659,25.0,200.0
-35.03146,25.45185,25.0,200.0
-37.34848,28.1441,27.0,204.0
-38.89893,30.39117,28.5,212.0
-39.70866,32.15544,29.5,214.0
-37.15118,31.17354,28.0,211.0
-36.60147,31.81717,28.0,211.0
-214.95648,193.54768,167.00002,2314.0
-211.54587,197.26971,167.00002,2314.0
-207.44785,200.33006,166.50002,2313.0
-203.92001,203.92001,166.50002,2313.0
-200.93166,208.07082,167.00002,2314.0
-197.26971,211.54587,167.00002,2314.0
-194.70665,216.24365,168.00002,2321.0
-189.76671,218.3016,167.00002,2314.0
-185.37123,220.91684,166.50002,2313.0
-181.48749,224.11836,166.50002,2313.0
-177.54843,227.25162,166.50002,2313.0
-174.07648,231.0073,167.00002,2314.0
-170.01834,234.01016,167.00002,2314.0
-165.9084,236.94176,167.00002,2314.0
-161.26366,239.0832,166.50002,2313.0
-157.06653,241.86122,166.50002,2313.0
-153.28046,245.3,167.00002,2314.0
-148.97603,247.93776,167.00002,2314.0
-145.05925,251.25,167.50002,2320.0
-140.23238,252.98592,167.00002,2314.0
-139.45499,262.27667,171.50002,2333.0
-131.31789,257.72583,167.00002,2314.0
-126.79994,259.9784,167.00002,2314.0
-122.60938,262.93665,167.50002,2320.0
-118.00182,265.03644,167.50002,2320.0
-113.35835,267.05548,167.50002,2320.0
-108.3559,268.19022,167.00002,2314.0
-104.27953,271.65744,168.00002,2321.0
-98.93018,271.8084,167.00002,2314.0
-94.73529,275.1313,168.00002,2321.0
-89.91915,276.74274,168.00002,2321.0
-85.32886,279.09805,168.50002,2322.0
-80.20621,279.71228,168.00002,2321.0
-75.53648,281.90598,168.50002,2322.0
-70.60504,283.18134,168.50002,2322.0
-65.65208,284.37045,168.50002,2322.0
-60.49907,284.62582,168.00002,2321.0
-55.52248,285.6383,168.00002,2321.0
-50.82971,288.26956,169.00002,2323.0
-45.79097,289.11276,169.00002,2323.0
-40.73827,289.8679,169.00002,2323.0
-35.67317,290.5347,169.00002,2323.0
-30.68773,291.97433,169.50002,2324.0
-25.58743,292.46542,169.50002,2324.0
-20.4793,292.86746,169.50002,2324.0
-15.36493,293.18027,169.50002,2324.0
-10.30633,295.13477,170.50002,2331.0
-5.15394,295.26968,170.50002,2331.0
1.0E-5,295.31467,170.50002,2331.0
5.16905,296.13556,171.00002,2332.0
10.30632,295.13477,170.50002,2331.0
15.41025,294.0451,170.00002,2330.0
20.41888,292.00354,169.00002,2323.0
25.2855,289.01453,167.50002,2320.0
29.87303,284.2228,165.00002,2310.0
34.30112,279.3603,162.50002,2300.0
39.77404,283.0071,165.00002,2310.0
43.21691,272.86084,159.50002,2234.0
47.22049,267.80072,157.00002,2224.0
51.22609,263.53534,155.00002,2220.0
55.27742,260.0599,153.50002,2212.0
59.02842,255.68025,151.50002,2203.0
62.85314,252.09023,150.00002,2200.0
66.57072,248.44533,148.50002,2142.0
69.94173,243.91577,146.50002,2133.0
73.93479,241.82977,146.00002,2132.0
77.07355,237.20805,144.00002,2123.0
80.07387,232.55144,142.00002,2114.0
83.52786,229.49094,141.00002,2112.0
78.52,204.5516,126.50002,2003.0
18.49187,45.76899,28.5,212.0
17.93431,42.25057,26.5,203.0
17.25997,38.76653,24.5,144.0
17.20192,36.88962,23.5,142.0
18.22274,37.36217,24.0,143.0
17.69252,34.72355,22.5,140.0
18.29584,34.40948,22.5,140.0
18.47372,33.32749,22.0,134.0
19.05256,33.0,22.0,134.0
20.07162,33.40479,22.5,140.0
21.56941,34.51826,23.5,142.0
22.64022,34.86288,24.0,143.0
24.69803,36.61635,25.5,201.0
26.32678,37.59854,26.5,203.0
26.97896,37.13335,26.5,203.0
28.14411,37.34848,27.0,204.0
30.92435,39.58136,29.0,213.0
36.51549,45.09289,33.5,232.0
143.62096,171.1608,129.00002,2013.0
147.72256,169.9354,130.00002,2020.0
148.92741,165.40063,128.50002,2012.0
142.93195,153.27576,121.00002,1432.0
154.00748,159.47945,128.00002,2011.0
157.37971,157.37971,128.50002,2012.0
160.72534,155.2107,129.00002,2013.0
164.04306,152.97261,129.50002,2014.0
171.19287,154.14278,133.00002,2031.0
169.2818,147.1544,129.50002,2014.0
172.48763,144.7343,130.00002,2020.0
175.66032,142.24696,130.50002,2021.0
178.11613,139.15958,130.50002,2021.0
181.2093,136.55103,131.00002,2022.0
184.2655,133.87671,131.50002,2023.0
187.9927,131.63391,132.50002,2030.0
191.69733,129.30151,133.50002,2032.0
194.65108,126.40788,134.00002,2033.0
196.82755,122.99152,134.00002,2033.0
200.42874,120.42972,135.00002,2040.0
203.24998,117.34645,135.50002,2041.0
205.26703,113.78134,135.50002,2041.0
207.22151,110.18163,135.50002,2041.0
202.16817,103.00985,131.00002,2022.0
194.59462,94.91013,125.00002,2000.0
188.37253,87.83956,120.00002,1430.0
170.09802,75.7325,107.50001,1330.0
171.39381,72.75237,107.50001,1330.0
170.22852,68.77681,106.00001,1322.0
172.21143,66.10577,106.50001,1323.0
166.01471,60.42443,102.00001,1304.0
150.66713,51.87884,92.00001,1214.0
154.02051,50.0443,93.50001,1222.0
134.99402,41.27183,81.50001,1123.0
134.86128,38.67085,81.00001,1122.0
130.49654,34.96645,78.00001,1111.0
130.24661,32.47412,77.50001,1110.0
128.26204,29.61163,76.00001,1102.0
123.6767,26.28828,73.00001,1041.0
119.86608,23.29961,70.50001,1031.0
116.84298,20.60258,68.50001,1022.0
114.61867,18.15381,67.00001,1014.0
114.91804,16.15068,67.00001,1014.0
111.74412,13.72045,65.00001,1010.0
114.5504,12.03974,66.50001,1013.0
108.70396,9.51038,63.00001,1001.0
113.17297,7.91382,65.50001,1011.0
105.5103,5.52957,61.00001,442.0
101.26324,3.53619,58.50001,432.0
98.71185,1.72303,57.00001,424.0
100.45895,-0.0,58.00001,431.0
99.43141,-0.0,59.74441,431.0
101.13034,1.76524,60.77449,433.0
99.37084,3.4701,59.74441,431.0
97.58315,5.11413,58.71434,424.0
104.31967,7.29474,62.83464,442.0
98.19913,8.59132,59.22937,430.0
104.00154,10.93101,62.83464,442.0
103.79493,12.74441,62.83464,442.0
106.10318,14.91184,64.37975,1000.0
111.75307,17.69995,67.98502,1012.0
115.64787,20.39185,70.56021,1022.0
111.06728,21.58929,67.98502,1012.0
114.86575,24.41546,70.56021,1022.0
121.10374,27.95901,74.68052,1040.0
113.9437,28.40935,70.56021,1022.0
126.67789,33.94325,78.80082,1103.0
125.24224,35.91264,78.28578,1102.0
127.87525,39.09541,80.34593,1111.0
135.32562,43.96996,85.49632,1131.0
130.48529,44.92968,82.92113,1121.0
136.12508,49.54549,87.04143,1134.0
141.64153,54.37109,91.16174,1202.0
150.20807,60.68802,97.34219,1224.0
158.59436,67.31931,103.52264,1301.0
164.44289,73.21468,108.15799,1320.0
163.14006,76.07347,108.15799,1320.0
164.0988,80.03632,109.7031,1323.0
165.73193,84.44466,111.76325,1332.0
164.23294,87.3242,111.76325,1332.0
184.42508,102.22847,126.69936,1441.0
191.5208,110.57459,132.87982,2013.0
197.64394,118.75645,138.54523,2034.0
202.81042,126.73004,143.69562,2104.0
199.13004,129.31656,142.66554,2102.0
195.42155,131.81354,141.63547,2100.0
193.09134,135.20403,141.63547,2100.0
189.31538,137.54565,140.6054,2043.0
186.20146,140.3129,140.09035,2042.0
183.72432,143.54117,140.09035,2042.0
180.52504,146.18633,139.5753,2041.0
177.28963,148.76367,139.06027,2040.0
174.01944,151.27277,138.54523,2034.0
170.71585,153.71326,138.0302,2033.0
171.76855,160.17674,141.12042,2044.0
164.63074,158.98209,137.51515,2032.0
162.43716,162.43716,138.0302,2033.0
158.38661,164.01418,137.00012,2031.0
155.50006,166.7534,137.00012,2031.0
153.1397,170.07884,137.51515,2032.0
150.14807,172.72562,137.51515,2032.0
147.11073,175.31975,137.51515,2032.0
143.48912,177.19435,137.00012,2031.0
140.90254,180.34705,137.51515,2032.0
138.24947,183.46321,138.0302,2033.0
124.94991,171.97882,127.72943,1443.0
28.02411,40.02257,29.35717,212.0
28.27999,41.92682,30.38725,214.0
28.47765,43.85174,31.41732,221.0
27.25377,43.61514,30.90228,220.0
26.04695,43.34941,30.38725,214.0
24.00069,41.5704,28.84213,211.0
20.36258,36.73508,25.23686,144.0
19.31595,36.32802,24.72183,143.0
18.679,36.6596,24.72183,143.0
17.6606,36.20959,24.20679,142.0
17.38822,37.28915,24.72183,143.0
16.73478,37.58694,24.72183,143.0
16.41118,38.66231,25.23686,144.0
15.73393,38.94283,25.23686,144.0
15.05188,39.2115,25.23686,144.0
14.65842,40.27369,25.7519,200.0
15.06958,43.76525,27.81205,204.0
14.83324,45.65202,28.84213,211.0
36.08805,118.0387,74.16548,1034.0
67.80873,236.47713,147.81592,2122.0
64.78056,241.76434,150.39111,2132.0
60.75868,243.6898,150.90614,2133.0
57.07491,247.21866,152.45126,2141.0
53.2863,250.69241,153.99637,2144.0
49.23013,253.26704,155.02644,2201.0
45.1002,255.77594,156.05652,2203.0
41.16578,259.91055,158.11668,2212.0
36.98133,263.1359,159.66179,2220.0
32.69672,266.29355,161.20691,2223.0
28.4923,271.086,163.78209,2233.0
24.05568,274.95758,165.84225,2242.0
19.5523,279.61093,168.41743,2302.0
14.75916,281.62158,169.44751,2304.0
9.93167,284.4062,170.99263,2312.0
5.08626,291.39252,175.11293,2330.0
1.0E-5,286.29388,172.0227,2314.0
-4.98155,285.39325,171.50766,2313.0
-9.9616,285.26285,171.50766,2313.0
-14.84889,283.33356,170.47758,2311.0
-19.79148,283.03125,170.47758,2311.0
-24.72805,282.64273,170.47758,2311.0
-29.65705,282.16812,170.47758,2311.0
-34.57705,281.60757,170.47758,2311.0
-39.48652,280.9612,170.47758,2311.0
-44.24987,279.38266,169.96255,2310.0
-49.11904,278.56787,169.96255,2310.0
-53.97324,277.66818,169.96255,2310.0
-58.63276,275.8455,169.44751,2304.0
-63.438,274.7802,169.44751,2304.0
-68.01656,272.7995,168.93248,2303.0
-73.21091,273.2268,169.96255,2310.0
-77.73196,271.08353,169.44751,2304.0
-82.20058,268.8659,168.93248,2303.0
-86.88039,267.39038,168.93248,2303.0
-91.81284,266.64386,169.44751,2304.0
-96.45244,265.0009,169.44751,2304.0
-100.44829,261.67673,168.41743,2302.0
-105.32098,260.67856,168.93248,2303.0
-109.51949,258.01172,168.41743,2302.0
-116.79485,262.32553,172.53775,2320.0
-118.45724,254.03238,168.41743,2302.0
-122.87268,251.92632,168.41743,2302.0
-126.86154,248.97978,167.9024,2301.0
-131.58994,247.48465,168.41743,2302.0
-135.47351,244.40071,167.9024,2301.0
-139.71826,241.99915,167.9024,2301.0
-143.92046,239.52386,167.9024,2301.0
-148.07881,236.97563,167.9024,2301.0
-152.19206,234.35521,167.9024,2301.0
-155.77962,230.95277,167.38736,2300.0
-159.78658,228.19887,167.38736,2300.0
-163.74486,225.37544,167.38736,2300.0
-167.65326,222.48338,167.38736,2300.0
-172.03831,220.199,167.9024,2301.0
-175.31569,216.49683,167.38736,2300.0
-179.06737,213.40419,167.38736,2300.0
-182.76453,210.24652,167.38736,2300.0
-186.40599,207.02483,167.38736,2300.0
-189.99068,203.74007,167.38736,2300.0
-194.11295,201.00983,167.9024,2301.0
-197.59148,197.59148,167.9024,2301.0
-201.00983,194.11293,167.9024,2301.0
-203.74007,189.99068,167.38736,2300.0
-207.02483,186.40599,167.38736,2300.0
-209.59961,182.20216,166.87233,2244.0
-213.40419,179.06737,167.38736,2300.0
-216.49684,175.31569,167.38736,2300.0
-219.52354,171.51059,167.38736,2300.0
-222.48338,167.65324,167.38736,2300.0
-55.47704,40.30643,41.20304,310.0
-40.02257,28.02411,29.35717,212.0
-43.34806,29.23863,31.41732,221.0
-42.41398,27.54396,30.38725,214.0
-45.79591,28.61646,32.4474,223.0
-40.41047,24.28106,28.32709,210.0
-38.60109,22.28635,26.78198,202.0
-36.73508,20.36259,25.23686,144.0
-37.84169,20.12078,25.7519,200.0
-36.6596,18.679,24.72183,143.0
-36.98001,18.03636,24.72183,143.0
-39.61973,18.47498,26.26694,201.0
-43.06837,19.17528,28.32709,210.0
-41.02939,17.41594,26.78198,202.0
-49.2746,19.90823,31.93236,222.0
-43.21267,16.58779,27.81205,204.0
-44.30106,16.12427,28.32709,210.0
-45.38619,15.62772,28.84213,211.0
-48.09766,15.62788,30.38725,214.0
-53.28136,16.28975,33.47747,230.0
-51.90961,14.88484,32.4474,223.0
-58.78516,15.75144,36.5677,241.0
-51.56576,12.85679,31.93236,222.0
-48.44149,11.1836,29.87221,213.0
-44.43711,9.4454,27.29702,203.0
-40.3881,7.85065,24.72183,143.0
-39.67482,6.99574,24.20679,142.0
-40.63748,6.43634,24.72183,143.0
-42.44127,5.96473,25.7519,200.0
-43.38968,5.32758,26.26694,201.0
-46.88594,4.92791,28.32709,210.0
-48.67262,4.2583,29.35717,212.0
-52.15984,3.64737,31.41732,221.0
-59.06349,3.09539,35.53762,234.0
-67.67496,2.36326,40.688,304.0
-67.7059,1.18181,40.688,304.0
-67.71622,0.0,40.688,304.0
-67.84384,0.0,42.39355,310.0
-67.83351,1.18404,42.39355,310.0
-66.95499,2.33812,41.86363,304.0
-66.05709,3.46191,41.33371,303.0
-65.98662,4.61423,41.33371,303.0
-65.89603,5.76516,41.33371,303.0
-64.94198,6.82568,40.80379,302.0
-65.65469,8.06138,41.33371,303.0
-54.58667,7.67166,34.44476,230.0
-50.25643,7.95984,31.79516,220.0
-47.60437,8.39393,30.2054,212.0
-46.61815,9.06165,29.67548,211.0
-44.79387,9.52123,28.61564,204.0
-42.96826,9.92,27.55581,202.0
-41.96573,10.46323,27.02589,201.0
-45.05333,12.072,29.14557,210.0
-39.12941,11.22018,25.43613,143.0
-38.92764,11.90137,25.43613,143.0
-37.90746,12.31688,24.90621,142.0
-37.68672,12.97658,24.90621,142.0
-35.0638,12.76218,23.31645,134.0
-35.62745,13.6761,23.84637,140.0
-35.38334,14.2958,23.84637,140.0
-36.68972,15.57386,24.90621,142.0
-34.86287,15.52195,23.84637,140.0
-33.81807,15.76963,23.31645,134.0
-35.82436,17.47271,24.90621,142.0
-35.51397,18.09527,24.90621,142.0
-35.19275,18.71232,24.90621,142.0
-35.60254,19.73481,25.43613,143.0
-35.98713,20.77718,25.96605,144.0
-37.07287,22.27563,27.02589,201.0
-36.67846,22.91925,27.02589,201.0
-35.56165,23.094,26.49597,200.0
-38.6685,26.08223,29.14557,210.0
-38.20742,26.75312,29.14557,210.0
-35.67643,25.92045,27.55581,202.0
-41.99144,31.64282,32.855,222.0
-42.76934,33.41507,33.91484,224.0
-38.88437,31.48794,31.26524,214.0
-37.02962,31.07154,30.2054,212.0
-202.88951,176.36916,167.98444,2232.0
-199.78053,179.88321,167.98444,2232.0
-198.47139,185.07756,169.57419,2240.0
-193.381,186.74586,167.98444,2232.0
-190.09238,190.09239,167.98444,2232.0
-186.74586,193.381,167.98444,2232.0
-183.34245,196.61072,167.98444,2232.0
-179.8832,199.78055,167.98444,2232.0
-175.25642,201.60944,166.92459,2230.0
-172.80138,205.93668,167.98444,2232.0
-168.6473,208.26204,167.45451,2231.0
-164.98692,211.17363,167.45451,2231.0
-162.29704,215.37544,168.51436,2233.0
-158.01505,217.48903,167.98444,2232.0
-153.70885,219.51897,167.45451,2231.0
-150.32852,222.87119,167.98444,2232.0
-145.9541,224.7496,167.45451,2231.0
-142.90825,228.701,168.51436,2233.0
-138.8951,231.16026,168.51436,2233.0
-133.99158,232.08025,167.45451,2231.0
-131.15424,236.60854,169.04427,2234.0
-126.20863,237.36388,167.98444,2232.0
-122.04683,239.53038,167.98444,2232.0
-118.21962,242.38612,168.51436,2233.0
-113.61298,243.64384,167.98444,2232.0
-110.03337,247.139,169.04427,2234.0
-105.37211,248.24107,168.51436,2233.0
-101.02364,250.04227,168.51436,2233.0
-96.94833,252.55902,169.04427,2234.0
-92.52579,254.21252,169.04427,2234.0
-88.35117,256.59045,169.57419,2240.0
-83.8596,258.09332,169.57419,2240.0
-79.09455,258.70657,169.04427,2234.0
-74.8012,260.86276,169.57419,2240.0
-70.23712,262.12848,169.57419,2240.0
-65.8568,264.13724,170.10411,2241.0
-62.00002,268.5516,172.22379,2300.0
-56.4221,265.44516,169.57419,2240.0
-51.78088,266.38943,169.57419,2240.0
-48.30194,273.9339,173.81355,2303.0
-42.58513,268.8719,170.10411,2241.0
-37.88618,269.57416,170.10411,2241.0
-33.17569,270.1943,170.10411,2241.0
-28.45509,270.73215,170.10411,2241.0
-23.72585,271.18753,170.10411,2241.0
-18.98936,271.5603,170.10411,2241.0
-14.24708,271.85034,170.10411,2241.0
-9.53006,272.90512,170.63403,2242.0
-4.75095,272.18198,170.10411,2241.0
1.0E-5,273.07147,170.63403,2242.0
4.79534,274.7257,171.69386,2244.0
9.53005,272.90512,170.63403,2242.0
14.38022,274.39102,171.69386,2244.0
19.10766,273.25226,171.16396,2243.0
23.94758,273.722,171.69386,2244.0
28.72104,273.26236,171.69386,2244.0
33.58908,273.56122,172.22379,2300.0
38.35827,272.93335,172.22379,2300.0
42.58512,268.8719,170.10411,2241.0
46.82932,265.58224,168.51436,2233.0
51.13361,263.05957,167.45451,2231.0
54.83522,257.97952,164.80492,2221.0
58.56616,253.67798,162.68524,2212.0
62.16389,249.32579,160.56557,2203.0
65.84729,245.74545,158.9758,2200.0
69.65862,242.92844,157.91597,2143.0
73.14386,239.24275,156.3262,2140.0
78.88042,242.76903,159.50572,2201.0
80.62044,234.1388,154.73645,2132.0
83.53426,229.5085,152.61678,2123.0
41.02829,106.88234,71.53911,1020.0
17.47264,43.2463,29.14557,210.0
17.23066,40.59288,27.55581,202.0
17.24661,38.73652,26.49597,200.0
16.84483,36.12385,24.90621,142.0
17.47271,35.82436,24.90621,142.0
17.32525,34.00274,23.84637,140.0
17.51792,32.94641,23.31645,134.0
18.50138,33.37738,23.84637,140.0
18.65706,32.31497,23.31645,134.0
19.21819,31.98444,23.31645,134.0
20.22287,32.36335,23.84637,140.0
20.7846,32.00548,23.84637,140.0
21.34001,31.63787,23.84637,140.0
23.34818,33.34465,25.43613,143.0
24.42504,33.61818,25.96605,144.0
26.02877,34.54134,27.02589,201.0
31.84874,40.76453,32.32508,221.0
27.75208,34.27097,27.55581,202.0
98.12066,116.93565,95.38548,1210.0
146.32518,168.3279,139.36879,2023.0
148.67319,165.11829,138.83887,2022.0
151.53224,162.49844,138.83887,2022.0
153.75604,159.21909,138.30894,2021.0
156.5114,156.5114,138.30894,2021.0
159.82909,154.34518,138.83887,2022.0
167.46024,156.15918,143.07822,2040.0
165.74852,149.24065,139.36879,2023.0
167.68787,145.76881,138.83887,2022.0
170.85597,143.36519,139.36879,2023.0
173.99106,140.89522,139.89871,2024.0
177.09181,138.35928,140.42863,2030.0
180.15681,135.75792,140.95854,2031.0
182.49869,132.59305,140.95854,2031.0
184.78496,129.38783,140.95854,2031.0
188.42105,127.09164,142.01839,2033.0
191.32166,124.24574,142.54831,2034.0
194.18008,121.3372,143.07822,2040.0
198.44891,119.24012,144.66798,2043.0
201.23413,116.18259,145.1979,2044.0
207.68147,115.1197,148.37741,2110.0
203.6687,108.29257,144.13806,2042.0
196.46024,100.10152,137.77904,2020.0
189.79292,92.56818,131.94992,1444.0
182.92502,85.29935,126.1208,1423.0
162.69339,72.43575,111.28307,1320.0
165.49405,70.24806,112.3429,1322.0
165.90854,67.03143,111.81298,1321.0
163.09454,62.60612,109.16338,1311.0
162.56851,59.17011,108.10355,1304.0
164.37827,56.59996,108.63347,1310.0
140.33824,45.59866,92.20596,1144.0
137.05771,41.90277,89.55637,1134.0
130.43138,37.4006,84.78709,1120.0
130.24509,34.89908,84.25718,1114.0
125.89718,31.38969,81.07766,1103.0
124.77321,28.80617,80.01782,1101.0
121.10936,25.74258,77.36823,1041.0
112.38305,21.84505,71.53911,1020.0
117.75816,20.76396,74.71863,1031.0
113.91457,18.04229,72.06903,1021.0
113.37231,15.93345,71.53911,1020.0
119.52521,14.67584,75.24855,1032.0
112.17251,11.78981,70.47927,1013.0
108.13708,9.46078,67.82967,1003.0
112.51564,7.86786,70.47927,1013.0
110.09515,5.76985,68.88952,1010.0
104.24637,3.64036,65.18008,443.0
99.20651,1.73166,62.00056,432.0
98.37357,-0.0,61.47065,431.0
95.60844,-0.0,62.08885,424.0
95.59388,1.6686,62.08885,424.0
94.71204,3.30741,61.54421,423.0
93.80238,4.91598,60.99957,422.0
94.53892,6.6108,61.54421,423.0
99.42202,8.69831,64.81204,434.0
100.92323,10.60746,65.90132,441.0
101.55515,12.4694,66.44596,442.0
105.4746,14.8235,69.16916,1002.0
115.13998,18.23638,75.70483,1024.0
109.02266,19.22365,71.89235,1012.0
109.49382,21.28345,72.43699,1013.0
115.66845,24.58608,76.79411,1031.0
116.85609,26.97836,77.88338,1033.0
115.5537,28.81077,77.33875,1032.0
120.70393,32.34254,81.15121,1044.0
123.34583,35.36885,83.32977,1103.0
125.91786,38.49697,85.50833,1112.0
126.82207,41.20699,86.5976,1114.0
131.63445,45.32537,90.41008,1131.0
134.76382,49.05003,93.13328,1141.0
135.45319,51.99561,94.22255,1143.0
140.74593,56.86506,98.57967,1211.0
162.12007,68.81589,114.3742,1320.0
152.46658,67.88248,108.38317,1244.0
159.61966,74.43188,114.3742,1320.0
162.0653,79.04453,117.09739,1330.0
162.90288,83.00318,118.73131,1333.0
159.20796,84.65237,117.09739,1330.0
178.24484,98.8027,132.34729,1433.0
186.66167,107.76918,139.97223,2012.0
199.13004,119.64938,150.865,2102.0
198.43399,123.99535,151.95428,2104.0
196.23976,127.43959,151.95428,2104.0
193.29044,130.37608,151.40965,2103.0
190.98564,133.72958,151.40965,2103.0
187.26566,136.05644,150.32037,2101.0
184.19281,138.79927,149.77574,2100.0
181.08151,141.47638,149.2311,2044.0
177.93304,144.08737,148.68646,2043.0
175.39128,147.17076,148.68646,2043.0
172.16315,149.65912,148.14182,2042.0
173.26451,156.00809,151.40965,2103.0
165.6085,154.43242,147.05254,2040.0
162.88805,157.2992,147.05254,2040.0
159.52498,159.52498,146.5079,2034.0
157.29915,162.88808,147.05254,2040.0
154.43242,165.6085,147.05254,2040.0
150.95747,167.65523,146.5079,2034.0
148.00847,170.2643,146.5079,2034.0
145.01442,172.82144,146.5079,2034.0
142.50395,175.97777,147.05254,2040.0
139.41103,178.43799,147.05254,2040.0
136.27565,180.84386,147.05254,2040.0
34.50707,47.49492,38.12473,240.0
27.41938,39.15892,31.04442,212.0
27.66973,41.02208,32.1337,214.0
27.40636,42.2021,32.67834,220.0
24.44353,39.11781,29.95515,210.0
22.46126,37.38181,28.32123,202.0
21.3861,37.04181,27.77659,201.0
20.32977,36.67589,27.23195,200.0
19.29287,36.28461,26.68731,144.0
19.03742,37.36305,27.23195,200.0
18.38245,37.68961,27.23195,200.0
17.36744,37.24459,26.68731,144.0
17.0559,38.30819,27.23195,200.0
16.38474,38.60002,27.23195,200.0
18.53612,45.87851,32.1337,214.0
15.92929,41.49722,28.86587,203.0
15.20264,41.76891,28.86587,203.0
14.7444,42.82085,29.41051,204.0
15.03148,46.26214,31.58906,213.0
15.93823,52.1316,35.40154,230.0
64.7273,225.73093,152.49893,2110.0
64.68504,241.40788,162.30243,2143.0
60.86782,244.12755,163.39171,2200.0
56.97526,246.787,164.48099,2202.0
53.00829,249.38446,165.57027,2204.0
49.12796,252.74138,167.20418,2212.0
45.29206,256.864,169.38274,2221.0
41.19585,260.10037,171.01666,2224.0
37.00035,263.27124,172.65057,2232.0
32.60441,265.54175,173.73985,2234.0
27.96513,266.0703,173.73985,2234.0
23.2442,265.68237,173.1952,2233.0
18.54536,265.21094,172.65057,2232.0
13.91396,265.49423,172.65057,2232.0
9.3954,269.04926,174.82913,2241.0
4.63986,265.81808,172.65057,2232.0
1.0E-5,265.85858,172.65057,2232.0
-4.61059,264.141,171.5613,2230.0
-9.27833,265.69662,172.65057,2232.0
-13.87007,264.6567,172.10594,2231.0
-18.42836,263.5377,171.5613,2230.0
-22.95183,262.34045,171.01666,2224.0
-27.52678,261.89993,171.01666,2224.0
-31.99117,260.5472,170.47202,2223.0
-36.76692,261.61023,171.5613,2230.0
-41.19586,260.10037,171.01666,2224.0
-45.4377,257.68994,169.92738,2222.0
-50.24815,258.5042,171.01666,2224.0
-54.57762,256.76755,170.47202,2223.0
-58.86186,254.95876,169.92738,2222.0
-63.50544,254.7064,170.47202,2223.0
-68.5922,255.98956,172.10594,2231.0
-72.12472,251.52875,169.92738,2222.0
-76.25832,249.42966,169.38274,2221.0
-80.85899,248.85841,169.92738,2222.0
-85.18986,247.40933,169.92738,2222.0
-89.49477,245.88487,169.92738,2222.0
-93.47188,243.50256,169.38274,2221.0
-98.02153,242.61176,169.92738,2222.0
-101.91307,240.0921,169.38274,2221.0
-105.74659,237.51074,168.8381,2220.0
-109.87562,235.62904,168.8381,2220.0
-113.97118,233.67555,168.8381,2220.0
-118.03204,231.6509,168.8381,2220.0
-121.66319,228.81516,168.29346,2214.0
-126.04461,227.39053,168.8381,2220.0
-129.99393,225.15611,168.8381,2220.0
-133.90366,222.8531,168.8381,2220.0
-139.99472,224.03839,171.5613,2230.0
-141.14278,217.3408,168.29346,2214.0
-144.9144,214.84444,168.29346,2214.0
-147.6798,210.9086,167.20418,2212.0
-152.32408,209.65611,168.29346,2214.0
-155.95988,206.96576,168.29346,2214.0
-159.03185,203.55148,167.74883,2213.0
-163.08789,201.39676,168.29346,2214.0
-165.49973,197.2349,167.20418,2212.0
-169.46696,194.94943,167.74883,2213.0
-172.2823,191.33888,167.20418,2212.0
-176.16736,188.91637,167.74883,2213.0
-178.855,185.20976,167.20418,2212.0
-182.65312,182.65314,167.74883,2213.0
-187.62291,181.18535,169.38274,2221.0
-188.91637,176.16736,167.74883,2213.0
-191.96213,172.84349,167.74883,2213.0
-194.94943,169.46696,167.74883,2213.0
-197.87735,166.0388,167.74883,2213.0
-201.39676,163.08789,168.29346,2214.0
-207.51677,162.12987,171.01666,2224.0
-206.96576,155.95988,168.29346,2214.0
-208.97762,151.83113,167.74883,2213.0
-40.53292,28.38146,32.1337,214.0
-42.41265,28.60769,33.22298,221.0
-42.90547,27.86314,33.22298,221.0
-47.65261,29.77666,36.49081,232.0
-40.25734,24.18905,30.49979,211.0
-42.12598,24.32145,31.58906,213.0
-46.94514,26.02212,34.8569,224.0
-37.76561,20.08033,27.77659,201.0
-38.85757,19.79892,28.32123,202.0
-39.19719,19.11775,28.32123,202.0
-38.00468,17.72187,27.23195,200.0
-38.30819,17.0559,27.23195,200.0
-39.37202,16.71243,27.77659,201.0
-38.88009,15.70858,27.23195,200.0
-38.36536,14.72708,26.68731,144.0
-38.61654,14.05527,26.68731,144.0
-38.85595,13.37918,26.68731,144.0
-45.46452,14.77232,31.04442,212.0
-38.49718,11.76977,26.14267,143.0
-38.69673,11.09611,26.14267,143.0
-42.93496,11.50439,28.86587,203.0
-41.50168,10.34753,27.77659,201.0
-42.49313,9.81031,28.32123,202.0
-41.01718,8.71847,27.23195,200.0
-42.80962,8.32135,28.32123,202.0
-43.77425,7.71858,28.86587,203.0
-43.90229,6.95344,28.86587,203.0
-47.33899,6.65306,31.04442,212.0
-53.27483,6.54133,34.8569,224.0
-50.04457,5.2599,32.67834,220.0
-55.14162,4.82427,35.94617,231.0
-64.42033,4.50471,41.93721,302.0
-65.32665,3.42362,42.48185,303.0
-64.53829,2.25373,41.93721,302.0
-63.72926,1.1124,41.39257,301.0
-65.41631,0.0,42.48185,303.0
-63.8359,0.0,43.05785,302.0
-64.65508,1.12856,43.61704,303.0
-63.79701,2.22784,43.05785,302.0
-63.74841,3.34091,43.05785,302.0
-63.6804,4.45297,43.05785,302.0
-62.7671,5.49141,42.49865,301.0
-61.8372,6.49935,41.93946,300.0
-63.36007,7.77964,43.05785,302.0
-62.39368,8.76886,42.49865,301.0
-58.95582,9.33768,40.26188,242.0
-52.25233,9.2135,35.78834,224.0
-49.64216,9.64946,34.11076,221.0
-47.84435,10.16963,32.99238,214.0
-44.42842,10.25711,30.75561,210.0
-44.24264,11.03093,30.75561,210.0
-44.04339,11.80139,30.75561,210.0
-41.43995,11.88271,29.07803,202.0
-42.01907,12.84652,29.63722,203.0
-41.0,13.32171,29.07803,202.0
-39.97739,13.76532,28.51883,201.0
-38.17299,13.89383,27.40045,144.0
-37.92469,14.55793,27.40045,144.0
-39.20219,15.83871,28.51883,201.0
-38.15666,16.19654,27.95964,200.0
-37.11081,16.5228,27.40045,144.0
-35.31407,16.46722,26.28206,142.0
-37.25671,18.17131,27.95964,200.0
-36.9339,18.81876,27.95964,200.0
-37.33184,19.84969,28.51883,201.0
-39.155,21.70397,30.19641,204.0
-38.77025,22.38402,30.19641,204.0
-39.08432,23.48423,30.75561,210.0
-37.26238,23.28412,29.63722,203.0
-36.15505,23.47937,29.07803,202.0
-39.17629,26.42474,31.87399,212.0
-40.06736,28.05547,32.99238,214.0
-38.90092,28.26317,32.43318,213.0
-40.38803,30.43456,34.11076,221.0
-41.8106,32.66602,35.78834,224.0
-36.72414,29.73863,31.87399,212.0
-189.25374,158.80273,166.63947,2143.0
-188.33047,163.71318,168.31703,2201.0
-185.4446,166.97507,168.31703,2201.0
-182.50224,170.1861,168.31703,2201.0
-180.10065,173.92117,168.87624,2202.0
-176.45166,176.45166,168.31703,2201.0
-173.34528,179.50429,168.31703,2201.0
-170.1861,182.50224,168.31703,2201.0
-167.5298,186.0607,168.87624,2202.0
-164.25708,188.95616,168.87624,2202.0
-160.40143,191.15898,168.31703,2201.0
-156.51909,193.28497,167.75784,2200.0
-153.63237,196.64046,168.31703,2201.0
-150.17711,199.29176,168.31703,2201.0
-146.67613,201.88235,168.31703,2201.0
-143.13045,204.41147,168.31703,2201.0
-139.07759,206.19101,167.75784,2200.0
-135.90941,209.28212,168.31703,2201.0
-131.7969,210.91913,167.75784,2200.0
-128.52277,213.89781,168.31703,2201.0
-124.77016,216.10826,168.31703,2201.0
-120.97954,218.2529,168.31703,2201.0
-117.1521,220.33102,168.31703,2201.0
-113.66532,223.08073,168.87624,2202.0
-109.75471,225.03049,168.87624,2202.0
-105.81066,226.91171,168.87624,2202.0
-101.83439,228.7238,168.87624,2202.0
-98.15105,231.22934,169.43542,2203.0
-93.79002,232.13843,168.87624,2202.0
-89.72437,233.73993,168.87624,2202.0
-85.91492,236.04929,169.43542,2203.0
-81.51229,236.72888,168.87624,2202.0
-77.36838,238.11542,168.87624,2202.0
-73.68571,241.01503,169.99461,2204.0
-70.83927,247.04585,173.34978,2220.0
-65.22951,243.4398,169.99461,2204.0
-60.97095,244.54115,169.99461,2204.0
-56.88033,246.37578,170.55382,2210.0
-52.39944,246.52003,169.99461,2204.0
-48.24731,248.21078,170.55382,2210.0
-43.90808,249.01501,170.55382,2210.0
-39.55547,249.7434,170.55382,2210.0
-35.19082,250.39569,170.55382,2210.0
-30.81545,250.97173,170.55382,2210.0
-26.51735,252.2958,171.113,2211.0
-22.18242,253.54605,171.6722,2212.0
-17.69622,253.06755,171.113,2211.0
-13.32027,254.16574,171.6722,2212.0
-8.8535,253.53098,171.113,2211.0
-4.44189,254.47578,171.6722,2212.0
1.0E-5,254.51456,171.6722,2212.0
4.49975,257.79144,173.90897,2221.0
8.88242,254.35951,171.6722,2212.0
13.40704,255.82155,172.79059,2214.0
17.81187,254.72159,172.23138,2213.0
22.32692,255.19781,172.79059,2214.0
26.77734,254.76929,172.79059,2214.0
31.01751,252.61745,171.6722,2212.0
35.65233,253.67958,172.79059,2214.0
40.07423,253.01872,172.79059,2214.0
44.62787,253.09723,173.34978,2220.0
49.03824,252.27982,173.34978,2220.0
54.29547,255.44017,176.14574,2230.0
57.81278,250.41473,173.34978,2220.0
61.7732,247.75879,172.23138,2213.0
65.87321,245.84218,171.6722,2212.0
69.46818,242.26433,169.99461,2204.0
73.20093,239.42941,168.87624,2202.0
77.11218,237.32697,168.31703,2201.0
80.43265,233.5934,166.63947,2143.0
26.65347,73.22981,52.56413,334.0
16.93473,44.11648,31.87399,212.0
16.45984,40.73952,29.63722,203.0
16.8444,39.68292,29.07803,202.0
17.1972,38.62554,28.51883,201.0
17.16796,36.8168,27.40045,144.0
17.44446,35.76644,26.84126,143.0
21.07701,41.36597,31.3148,211.0
18.29285,34.40385,26.28206,142.0
18.08664,32.62917,25.16368,140.0
19.48239,33.74448,26.28206,142.0
20.06834,33.39933,26.28206,142.0
21.08751,33.74706,26.84126,143.0
21.67326,33.37389,26.84126,143.0
23.17959,34.36517,27.95964,200.0
24.25134,34.6345,28.51883,201.0
25.82669,35.54739,29.63722,203.0
27.93993,37.07753,31.3148,211.0
34.70764,44.42376,38.02511,233.0
32.869,40.58985,35.22915,223.0
34.63818,41.28018,36.34753,230.0
113.67459,130.76768,116.8713,1314.0
148.66884,165.11345,149.86368,2033.0
151.52782,162.4937,149.86368,2033.0
153.76472,159.22807,149.30449,2032.0
156.52025,156.52023,149.30449,2032.0
159.8244,154.34065,149.86368,2033.0
163.10002,152.09322,150.42287,2034.0
165.72955,149.22357,150.42287,2034.0
168.30864,146.30844,150.42287,2034.0
175.28198,147.07906,154.33722,2101.0
173.95647,140.8672,150.98206,2040.0
177.04175,138.32016,151.54126,2041.0
182.73929,137.70395,154.33722,2101.0
182.43192,132.54453,152.10045,2042.0
185.39644,129.816,152.65964,2043.0
188.3211,127.02422,153.21883,2044.0
190.50931,123.71819,153.21883,2044.0
193.34253,120.81384,153.77803,2100.0
196.84283,118.27509,154.89641,2102.0
198.87703,114.82172,154.89641,2102.0
202.30086,112.13717,156.0148,2104.0
204.2271,108.58948,156.0148,2104.0
198.70436,101.24495,150.42287,2034.0
191.49947,93.40052,143.71255,2012.0
183.33263,85.48943,136.44305,1434.0
162.0758,72.16078,119.66727,1324.0
165.5999,70.29299,121.34484,1332.0
167.57011,67.70274,121.90404,1333.0
165.6303,63.57951,119.66727,1324.0
153.47098,55.85888,110.16099,1242.0
156.7741,53.98164,111.83856,1300.0
162.4231,52.77447,115.19372,1311.0
136.36377,41.69061,96.18117,1142.0
133.88292,38.39031,93.9444,1133.0
128.927,34.5459,90.03004,1121.0
127.90146,31.88941,88.91166,1114.0
124.39957,28.71991,86.11569,1104.0
122.4491,26.02735,84.43812,1101.0
118.81566,23.09543,81.64215,1041.0
115.11842,20.2985,78.84619,1031.0
115.45515,18.28629,78.84619,1031.0
111.65185,15.69165,76.05022,1021.0
116.02299,14.24582,78.84619,1031.0
110.48248,11.61218,74.93184,1014.0
105.71301,9.2487,71.57668,1003.0
110.82043,7.74932,74.93184,1014.0
105.97139,5.55373,71.57668,1003.0
100.25244,3.50089,67.66233,441.0
96.98263,1.69284,65.42556,432.0
96.99741,-0.0,65.42556,432.0
95.84079,-0.0,67.10844,432.0
96.64522,1.68695,67.68202,433.0
94.96375,3.3162,66.53487,431.0
93.25535,4.88731,65.38772,424.0
95.60732,6.68551,67.10844,432.0
99.55626,8.71006,69.97633,442.0
100.20375,10.53184,70.5499,443.0
102.44382,12.57851,72.27064,1001.0
111.94285,15.73255,79.15355,1023.0
110.0331,17.42753,78.0064,1021.0
108.09877,19.06074,76.85925,1014.0
114.98657,22.35113,82.02144,1033.0
113.77773,24.18419,81.44786,1032.0
113.33833,26.16622,81.44786,1032.0
113.65922,28.33842,82.02144,1033.0
118.68601,31.80183,86.03647,1100.0
123.62486,35.44886,90.05151,1112.0
124.55407,38.08002,91.19866,1114.0
134.77736,43.79182,99.22873,1143.0
130.11995,44.80388,96.36085,1133.0
140.86446,51.27048,104.96449,1213.0
143.00719,54.89531,107.2588,1222.0
155.69843,62.90627,117.58318,1310.0
147.79054,62.73337,112.42099,1241.0
154.90486,68.96807,118.73033,1312.0
160.35922,74.77675,123.89252,1331.0
159.02979,77.564,123.89252,1331.0
160.57135,81.81521,126.18682,1340.0
158.39575,84.22052,125.61324,1334.0
174.81296,96.90038,139.95265,1434.0
183.02686,105.67062,147.98273,2013.0
192.38919,115.59908,157.15996,2044.0
200.06792,125.01633,165.19002,2123.0
195.10764,126.70438,162.89572,2114.0
192.18748,129.63214,162.32214,2113.0
188.55382,132.02681,161.17499,2111.0
185.55823,134.81592,160.60141,2110.0
182.52287,137.54088,160.02783,2104.0
179.44917,140.20105,159.45425,2103.0
176.97498,143.31154,159.45425,2103.0
173.8194,145.85179,158.88068,2102.0
170.62926,148.32571,158.3071,2101.0
167.40585,150.73293,157.73354,2100.0
164.74973,153.63159,157.73354,2100.0
161.45412,155.91446,157.15996,2044.0
158.70847,158.70845,157.15996,2044.0
156.48344,162.0434,157.73354,2100.0
153.07292,164.15063,157.15996,2044.0
150.1848,166.7971,157.15996,2044.0
147.2509,169.3928,157.15996,2044.0
144.27217,171.93687,157.15996,2044.0
141.24947,174.4286,157.15996,2044.0
138.18378,176.86717,157.15996,2044.0
119.79366,158.97154,139.37909,1433.0
30.81507,42.41331,36.70889,224.0
29.13047,41.60262,35.56174,222.0
31.14835,46.17933,39.0032,233.0
27.21467,41.90692,34.98816,221.0
26.04507,41.68082,34.41459,220.0
24.04798,40.02257,32.69386,212.0
22.11711,38.30795,30.97313,204.0
21.04803,37.97166,30.39955,203.0
20.38214,38.33322,30.39955,203.0
19.71002,38.6831,30.39955,203.0
18.67282,38.28495,29.82598,202.0
17.65562,37.86259,29.2524,201.0
19.99075,44.89996,34.41459,220.0
16.32348,38.4557,29.2524,201.0
15.64985,38.73473,29.2524,201.0
15.55857,40.53145,30.39955,203.0
14.56866,40.02706,29.82598,202.0
14.66794,42.59879,31.54671,210.0
14.68165,45.18547,33.26744,213.0
14.13032,46.21818,33.84101,214.0
18.2889,63.78098,46.45969,311.0
63.60364,237.37202,172.07294,2200.0
60.04575,240.83037,173.79367,2203.0
56.0178,242.6398,174.36725,2204.0
51.77461,243.58049,174.36725,2204.0
47.51569,244.44698,174.36725,2204.0
43.24226,245.23901,174.36725,2204.0
38.95565,245.95634,174.36725,2204.0
34.54318,245.78757,173.79367,2203.0
30.1485,245.53995,173.2201,2202.0
25.9443,246.84338,173.79367,2203.0
21.56093,246.44254,173.2201,2202.0
17.25663,246.7813,173.2201,2202.0
12.9042,246.22685,172.64651,2201.0
8.60498,246.41455,172.64651,2201.0
4.31743,247.34624,173.2201,2202.0
1.0E-5,246.56476,172.64651,2201.0
-4.31744,247.34624,173.2201,2202.0
-8.60499,246.41455,172.64651,2201.0
-12.90421,246.22685,172.64651,2201.0
-17.59949,251.68423,176.66156,2213.0
-21.41816,244.81047,172.07294,2200.0
-25.6874,244.39938,172.07294,2200.0
-29.84902,243.10081,171.49936,2144.0
-34.20118,243.35403,172.07294,2200.0
-38.44309,242.72006,172.07294,2200.0
-42.67329,242.01218,172.07294,2200.0
-46.73418,240.42647,171.49936,2144.0
-50.92307,239.57422,171.49936,2144.0
-55.09646,238.649,171.49936,2144.0
-59.25307,237.6511,171.49936,2144.0
-64.23969,239.74574,173.79367,2203.0
-67.2851,234.651,170.92578,2143.0
-71.37009,233.44096,170.92578,2143.0
-76.69896,236.05515,173.79367,2203.0
-79.20687,230.03346,170.35222,2142.0
-83.20945,228.61607,170.35222,2142.0
-87.18668,227.12906,170.35222,2142.0
-91.13735,225.57285,170.35222,2142.0
-94.7402,223.19388,169.77864,2141.0
-98.62102,221.50645,169.77864,2141.0
-102.47182,219.75154,169.77864,2141.0
-103.41867,212.0397,165.19002,2123.0
-104.87221,205.82327,161.74857,2112.0
-112.6786,211.9176,168.0579,2133.0
-117.55129,212.06818,169.77864,2141.0
-120.82492,209.2749,169.20506,2140.0
-124.03697,206.43219,168.63148,2134.0
-128.92308,206.32005,170.35222,2142.0
-131.1658,201.97762,168.63148,2134.0
-135.12888,200.3368,169.20506,2140.0
-138.13481,197.27695,168.63148,2134.0
-141.55673,194.83612,168.63148,2134.0
-144.93553,192.33594,168.63148,2134.0
-148.7745,190.42267,169.20506,2140.0
-151.55968,187.1606,168.63148,2134.0
-156.90915,186.99704,170.92578,2143.0
-157.99916,181.75723,168.63148,2134.0
-161.6953,179.58084,169.20506,2140.0
-163.68748,175.53333,168.0579,2133.0
-168.43312,174.4176,169.77864,2141.0
-170.87224,170.87225,169.20506,2140.0
-174.4176,168.43312,169.77864,2141.0
-176.13242,164.24614,168.63148,2134.0
-179.58083,161.69531,169.20506,2140.0
-182.37546,158.53656,169.20506,2140.0
-185.74203,155.85606,169.77864,2141.0
-188.4338,152.59068,169.77864,2141.0
-190.42268,148.7745,169.20506,2140.0
-193.64435,145.92148,169.77864,2141.0
-194.83612,141.55673,168.63148,2134.0
-198.61897,139.07451,169.77864,2141.0
-50.93309,34.3548,43.01823,300.0
-42.59392,27.66081,35.56174,222.0
-44.45954,27.7814,36.70889,224.0
-43.53332,26.15746,35.56174,222.0
-43.27379,24.98414,34.98816,221.0
-43.70324,24.2251,34.98816,221.0
-40.50303,21.53584,32.12028,211.0
-45.25193,23.05701,35.56174,222.0
-40.49369,19.75009,31.54671,210.0
-39.3474,18.348,30.39955,203.0
-42.65496,18.99121,32.69386,212.0
-39.20974,16.64355,29.82598,202.0
-39.49424,15.95671,29.82598,202.0
-38.23721,14.67789,28.67882,200.0
-40.02706,14.56866,29.82598,202.0
-39.50069,13.60118,29.2524,201.0
-40.51111,13.16286,29.82598,202.0
-39.95131,12.21434,29.2524,201.0
-43.30807,12.41839,31.54671,210.0
-41.14449,11.02463,29.82598,202.0
-42.92027,10.70122,30.97313,204.0
-43.89865,10.1348,31.54671,210.0
-44.87009,9.53743,32.12028,211.0
-45.83381,8.90919,32.69386,212.0
-45.17561,7.96568,32.12028,211.0
-46.92588,7.43233,33.26744,213.0
-49.48199,6.95424,34.98816,221.0
-52.03495,6.38909,36.70889,224.0
-55.39719,5.82248,39.0032,233.0
-60.38658,5.28314,42.44466,244.0
-61.28675,4.28559,43.01823,300.0
-61.3522,3.21533,43.01823,300.0
-61.39898,2.1441,43.01823,300.0
-62.24607,1.08651,43.59181,301.0
-62.25555,0.0,43.59181,301.0
-72.00252,0.0,52.31288,324.0
-60.66703,1.05895,44.08389,300.0
-60.63932,2.11757,44.08389,300.0
-70.28802,3.68364,51.13731,322.0
-61.33552,4.289,44.67168,301.0
-60.44538,5.28829,44.08389,300.0
-62.75764,6.59609,45.84724,303.0
-60.22401,7.39458,44.08389,300.0
-60.88692,8.5571,44.67168,301.0
-59.92925,9.49186,44.08389,300.0
-58.95774,10.39584,43.49611,244.0
-53.20826,10.34264,39.38161,232.0
-50.64564,10.76506,37.61825,224.0
-49.66177,11.46532,37.03047,223.0
-46.31416,11.54742,34.67933,214.0
-45.32413,12.14456,34.09154,213.0
-44.32759,12.71073,33.50376,212.0
-43.32534,13.24589,32.91597,211.0
-42.31815,13.75,32.32819,210.0
-42.83667,14.74985,32.91597,211.0
-47.89432,17.43211,37.03047,223.0
-40.02997,15.36607,31.15262,203.0
-39.7557,16.06235,31.15262,203.0
-39.46932,16.75373,31.15262,203.0
-38.43184,17.11096,30.56483,202.0
-37.39414,17.43717,29.97705,201.0
-38.5384,18.79643,31.15262,203.0
-38.92533,19.83345,31.7404,204.0
-39.28758,20.88958,32.32819,210.0
-37.50186,20.78762,31.15262,203.0
-39.23524,22.65248,32.91597,211.0
-40.22085,24.16712,34.09154,213.0
-37.7347,23.57925,32.32819,210.0
-41.38842,26.87796,35.8549,221.0
-41.58374,28.04859,36.44268,222.0
-39.09977,27.37795,34.67933,214.0
-40.57953,29.48275,36.44268,222.0
-40.70491,30.67335,37.03047,223.0
-39.52588,30.881,36.44268,222.0
-176.0428,142.55666,164.57986,2110.0
-177.86624,149.2475,168.69435,2122.0
-174.62386,151.7982,168.10657,2121.0
-171.94801,154.8227,168.10657,2121.0
-168.62811,157.24826,167.51878,2120.0
-165.27611,159.60529,166.931,2114.0
-163.0375,163.0375,167.51878,2120.0
-160.16728,165.85806,167.51878,2120.0
-157.8,169.21979,168.10657,2121.0
-153.74,170.74557,166.931,2114.0
-151.26744,174.01328,167.51878,2120.0
-148.20744,176.62675,167.51878,2120.0
-144.59319,178.5577,166.931,2114.0
-141.4549,181.054,166.931,2114.0
-138.7604,184.14127,167.51878,2120.0
-137.42767,189.15295,169.86992,2124.0
-132.71347,189.53447,168.10657,2121.0
-129.83781,192.49248,168.69435,2122.0
-126.4586,194.72914,168.69435,2122.0
-122.61212,196.22041,168.10657,2121.0
-118.75225,197.63693,167.51878,2120.0
-116.09394,201.08061,168.69435,2122.0
-112.56691,203.07611,168.69435,2122.0
-108.62581,204.29541,168.10657,2121.0
-105.04382,206.16008,168.10657,2121.0
-101.78447,208.68909,168.69435,2122.0
-100.86208,216.29944,173.39664,2140.0
-88.51629,198.81087,158.11423,2034.0
-79.02705,186.17603,146.9463,2000.0
-76.06885,188.277,147.53409,2001.0
-75.09078,195.61815,152.23637,2014.0
-79.41293,218.18524,168.69435,2122.0
-75.59298,219.53796,168.69435,2122.0
-71.99999,221.59323,169.28214,2123.0
-67.88519,222.04237,168.69435,2122.0
-64.22266,223.971,169.28214,2123.0
-60.51343,225.83917,169.86992,2124.0
-56.56277,226.86089,169.86992,2124.0
-52.77687,228.60178,170.4577,2130.0
-48.94738,230.27937,171.0455,2131.0
-44.76665,230.3044,170.4577,2130.0
-40.88095,231.84734,171.0455,2131.0
-36.82843,232.5255,171.0455,2131.0
-32.76468,233.13283,171.0455,2131.0
-28.78955,234.47212,171.63329,2132.0
-24.60849,234.13428,171.0455,2131.0
-20.65958,236.13997,172.22107,2133.0
-16.47879,235.65752,171.63329,2132.0
-12.40582,236.71713,172.22107,2133.0
-8.24441,236.08907,171.63329,2132.0
-4.13695,237.00589,172.22107,2133.0
1.0E-5,241.08708,175.15999,2143.0
4.13694,237.00589,172.22107,2133.0
8.27264,236.89758,172.22107,2133.0
12.44816,237.52504,172.80885,2134.0
16.59165,237.2716,172.80885,2134.0
20.65958,236.13997,172.22107,2133.0
24.94678,237.35262,173.39664,2140.0
28.98673,236.07811,172.80885,2134.0
33.55283,238.74083,175.15999,2143.0
37.46121,236.52078,173.98442,2141.0
41.58337,235.83096,173.98442,2141.0
46.00159,236.65762,175.15999,2143.0
49.9566,235.0274,174.5722,2142.0
54.05079,234.11975,174.5722,2142.0
58.32423,233.92577,175.15999,2143.0
62.39792,232.87224,175.15999,2143.0
66.45261,231.74777,175.15999,2143.0
70.25051,229.77905,174.5722,2142.0
73.49998,226.20975,172.80885,2134.0
18.43731,53.54585,41.14497,240.0
17.15541,47.13409,36.44268,222.0
17.10562,44.56166,34.67933,214.0
18.48685,45.75656,35.8549,221.0
16.43762,38.72461,30.56483,202.0
16.7819,37.69277,29.97705,201.0
17.09527,36.66092,29.38926,200.0
17.73248,36.35698,29.38926,200.0
17.99701,35.32114,28.80148,144.0
18.99052,35.71598,29.38926,200.0
20.00318,36.0867,29.97705,201.0
21.03444,36.43272,30.56483,202.0
21.2504,35.36661,29.97705,201.0
21.43569,34.30426,29.38926,200.0
22.91236,35.28194,30.56483,202.0
23.97701,35.54739,31.15262,203.0
26.44989,37.77435,33.50376,212.0
28.53169,39.27051,35.26711,220.0
31.64711,41.99713,38.20604,230.0
31.87716,40.8009,37.61825,224.0
32.07524,39.60963,37.03047,223.0
83.20419,99.15887,94.04563,1120.0
147.55208,169.73927,163.40428,2103.0
149.40932,165.93584,162.22871,2101.0
152.28252,163.30302,162.22871,2101.0
154.54735,160.03851,161.64093,2100.0
